# .PCD v0.7 - Point Cloud Data file format
VERSION 0.7
FIELDS x y z intensity
SIZE 4 4 4 4
TYPE F F F F
COUNT 1 1 1 1
WIDTH 358
HEIGHT 1
VIEWPOINT 0 0 0 1 0 0 0
POINTS 358
DATA ascii
39.438183 9.1462765 1.0676713 1
39.451736 9.2310629 1.062799 1
39.444939 9.0783424 0.99254054 1
39.520695 9.0136728 1.1122674 21
39.467403 9.0232029 1.2294267 3
39.549686 9.200613 1.2464799 2
39.611206 9.1744576 1.1966903 2
39.480305 8.8995399 1.188712 12
39.577438 9.2691393 1.2877653 3
39.435791 9.391777 1.2195063 2
39.538033 9.1971846 1.3477848 1
39.302849 9.3760347 1.2493422 1
39.477146 9.3405113 1.338713 3
39.452885 9.432415 1.2743549 3
39.483734 9.3663559 1.3479555 10
39.39241 8.8256159 1.240761 3
39.607441 9.3582182 1.3850026 1
39.433483 9.4995842 1.3011183 2
39.386368 9.5465479 1.2444702 1
39.436489 9.5406218 1.3193283 3
39.441708 9.5229235 1.3502862 3
39.07346 8.8387184 1.0665482 60
39.275047 8.693923 1.1670376 11
39.459793 9.5637255 1.3407838 3
39.433174 9.5016832 1.4303792 2
39.460224 9.4843311 1.4556259 1
39.35313 9.5863333 1.3455724 8
39.331573 9.5855551 1.3398497 3
39.335117 9.5816479 1.3534595 3
39.379612 9.5918865 1.3623385 3
39.472523 9.5041656 1.4686385 1
39.083611 8.7532883 1.1841167 23
39.337749 9.6134434 1.3253934 2
39.358006 9.5439539 1.4400653 3
39.500771 9.4911833 1.4945369 1
39.264595 9.6071796 1.3487529 1
39.372807 9.6046228 1.4290428 4
39.282993 9.6271009 1.4128915 3
39.324429 8.553297 1.1914806 10
39.454483 8.542778 1.2020918 3
39.474861 9.5751677 1.5248028 1
39.194839 9.6120472 1.4155015 5
39.262257 9.6778212 1.3668642 1
39.065952 9.5599213 1.3859264 1
39.491074 8.5288706 1.246498 1
39.331032 9.6381674 1.4880265 4
39.433029 9.6065702 1.5414492 1
38.874733 8.7543602 1.1043242 22
39.444695 9.6354113 1.5565579 2
39.28759 9.6918726 1.5037111 3
39.351074 9.7121449 1.5054003 3
39.357616 9.623538 1.6063877 1
39.463299 9.6442423 1.594968 1
38.941944 8.5882101 1.127605 40
39.08337 9.8033791 0.98059762 12
39.084396 8.4012194 1.1015674 28
39.592751 8.3415499 1.1949434 1
39.240231 8.3415461 1.1506569 13
39.37999 8.3063488 1.1663558 3
38.943352 9.6746883 1.582613 23
39.071274 9.9650707 1.0484167 12
39.230934 9.8179417 1.6426613 11
39.296871 8.2355099 1.1550832 7
39.249039 9.8226204 1.6792034 2
39.011433 9.7764978 1.6469457 32
38.632614 8.6247807 1.1603572 48
39.335915 9.8614206 1.7344434 1
38.975338 9.8240309 1.6122223 34
38.660603 9.6459703 1.5412116 23
39.352303 8.117466 1.2117052 1
39.173603 9.9657669 1.6873766 11
38.972855 9.9223452 1.6320049 39
39.145248 9.9870672 1.681017 14
38.831905 10.043887 1.1521498 20
38.49382 9.4453888 1.5207741 1
39.119778 8.1008787 1.1021971 13
38.719086 8.2980089 1.1077263 46
38.562145 8.4520426 1.1039622 54
38.34124 9.035264 1.2786888 1
38.938648 9.9991112 1.620105 31
39.031292 8.0901051 1.0996543 21
39.270695 10.037266 1.7559731 3
38.580757 9.7504005 1.584228 42
38.565891 9.9284239 1.2679635 17
39.175922 10.128804 1.6904151 11
39.148037 10.140903 1.6851108 11
38.795803 8.1180353 1.057411 42
38.339661 9.6413403 1.2303107 13
38.554184 9.7874775 1.6236697 37
38.797752 10.193431 1.0812027 8
38.432072 9.8514967 1.0839692 26
39.270954 10.15698 1.7943449 3
38.808094 8.0577631 1.066517 41
38.373669 8.478611 1.1331854 59
39.078915 7.9388118 1.0792414 11
39.213547 10.238988 1.6840181 12
38.297916 8.568697 1.1298714 50
38.400623 8.3894053 1.1099612 47
38.345753 9.666976 1.5704826 47
38.292084 9.6001749 1.5576494 42
38.180031 9.372139 1.4364988 21
38.152325 8.8189201 1.1960552 16
38.148151 9.2674236 1.4216624 17
38.122723 9.2262917 1.3348907 29
39.187191 10.200501 1.8651769 1
38.136898 9.198555 1.406051 7
38.148533 9.2033691 1.4504832 1
38.386616 8.2846203 1.0780543 59
38.229454 9.5701962 1.5259094 30
38.128075 9.3037462 1.400503 33
38.162754 8.6734362 1.1253164 76
38.219608 9.5126009 1.5624704 7
38.095592 9.1164894 1.3209661 14
38.087997 9.1878929 1.2959861 32
38.087837 9.1773071 1.3013644 33
38.11293 9.3226299 1.3814241 44
38.171249 9.5696373 1.3943458 35
38.193134 9.4993429 1.5344492 24
38.1133 9.2028322 1.4576367 4
38.081268 8.8969383 1.1668923 33
38.159332 9.4044466 1.5416746 12
38.088505 9.316309 1.3475941 40
38.091213 9.3253384 1.3663845 43
38.23082 9.7625103 1.404691 50
38.098648 8.7546425 1.1294305 35
38.248001 9.8772554 1.1089526 54
38.04377 9.1878223 1.1814356 41
38.048695 9.2246609 1.2550327 31
38.038155 9.1573715 1.187518 37
38.168331 8.5403738 1.0721892 89
38.071697 9.0616007 1.4035363 2
38.105789 9.2702751 1.517464 1
38.026592 9.2010317 1.1412702 43
38.832317 7.8691359 0.95460212 24
38.015717 9.216938 1.1635077 40
38.035851 8.8708858 1.0954418 102
38.022606 9.2405443 1.2440307 38
38.71711 10.159017 1.7757894 35
38.382328 8.177475 1.0364048 53
38.262642 9.8753719 1.4431846 47
38.012634 8.9940233 1.072704 92
38.237259 9.7316637 1.6123062 56
37.987881 9.0715513 1.0490165 90
37.983707 9.1937714 1.0771331 83
39.074059 7.8315868 0.55395222 133
38.214024 8.3466635 1.0684514 65
38.700069 7.887589 0.93926996 23
37.96122 9.1780739 1.0336418 104
37.951889 9.1041527 0.91629273 115
37.942951 9.2801542 1.1339854 88
37.934715 9.2373981 0.99415362 90
37.940552 9.247385 1.1620058 38
38.417191 10.039924 1.70825 6
38.221981 9.8289194 1.6550914 34
39.044991 7.7464581 0.64041972 11
38.669743 7.8370066 0.89733976 18
38.156349 8.4618216 0.57932931 21
38.004761 8.6917028 0.96062571 132
38.326702 8.0901403 0.96858686 43
37.999893 8.7058315 0.96374369 121
39.257774 10.719544 0.9909218 1
38.920368 10.499746 1.6935276 3
38.66188 10.201461 1.9932064 8
38.586071 10.255913 1.8715872 33
38.153915 8.2922049 1.0229958 65
38.25856 8.1081028 1.0057597 76
38.388393 7.9753799 0.89947069 42
38.134674 8.2832489 0.96201175 101
38.277496 9.987752 1.734221 15
38.610367 10.264185 1.9509056 11
38.164104 9.9033651 1.5718855 55
39.053604 10.661365 1.7150775 3
38.860313 10.617864 1.6556859 3
38.153294 9.9099636 1.5735724 38
38.163521 9.9229355 1.6564959 34
38.251026 10.096717 1.6898118 26
38.20686 10.017315 1.7088082 33
38.110722 8.3078651 0.95134556 96
38.002171 8.5489931 0.93976545 117
38.010174 8.5352459 0.90067565 125
38.219379 8.0727634 0.9007827 52
37.957108 8.7578201 0.84386396 94
38.019115 8.4262257 0.83491951 118
38.137699 8.1461887 0.87136853 101
37.926353 8.8749418 0.82318783 124
37.997791 8.5287113 0.7355147 33
37.928696 9.2131109 0.97646958 116
37.929729 9.172966 0.89412946 138
37.923168 8.9704523 0.78944808 112
38.180779 8.0548286 0.86670613 43
37.915714 9.1711149 0.9278031 137
37.927414 9.2935457 1.1202636 102
38.330353 7.8783112 0.82933593 45
37.924923 9.2939386 1.0992016 94
38.161152 8.0677099 0.82098556 73
38.281658 7.9552054 0.71888 44
37.95369 8.5939474 0.69950277 26
37.917187 9.2276678 0.87070829 142
37.910606 9.2073746 0.8748126 141
38.01231 8.3728008 0.7103889 46
37.911846 9.1843529 0.80145454 130
37.907429 9.267581 0.84781981 131
38.369484 7.8502827 0.66137725 43
37.904911 9.1920967 0.75456285 136
38.309448 7.9083619 0.63068289 39
38.072903 8.1842136 0.69543833 128
37.90675 9.0570326 0.63731807 95
37.899048 9.2914515 0.82276523 132
38.046673 8.1950645 0.70316219 124
37.899204 9.3006048 0.80397278 120
37.923344 9.6345186 1.0715307 99
38.030319 10.052171 1.2933744 3
37.88979 9.646081 1.0925256 98
38.114742 10.100414 1.6612953 46
37.881435 9.4778776 0.94952297 129
37.93449 9.8925009 1.202052 33
38.063049 10.121143 1.4822094 18
38.304058 10.292565 1.8227674 22
38.034382 10.106314 1.4764978 15
38.94257 10.765532 1.6484034 4
38.264492 10.309249 1.7697917 26
38.077003 10.157715 1.5855 42
38.94875 10.768957 1.6508695 4
37.808708 9.365469 1.2628505 39
38.052311 10.166545 1.4687999 21
37.90456 9.2078676 0.6799764 118
37.904778 9.1392632 0.60760355 106
37.904057 9.1885881 0.62768948 121
37.893135 9.2749939 0.7046538 126
37.90295 9.2061844 0.5760175 100
37.893932 9.2429075 0.58090144 110
38.192554 7.973712 0.63747764 36
38.231979 7.9068489 0.66233367 44
38.139694 8.0059071 0.53708243 87
38.243061 10.304441 1.7847753 10
38.071651 10.180873 1.5472512 36
38.213631 10.270109 1.8178185 40
37.845531 9.5679646 0.6670208 115
37.97393 10.078626 1.4069415 1
38.101627 10.367539 1.6047113 37
38.115807 10.403791 1.6283472 42
37.883968 9.9370899 1.1783828 49
37.833145 9.7166224 0.81368148 134
37.805332 9.7763844 0.84586012 118
38.060444 10.388332 1.5655367 37
38.156898 10.510573 1.7120634 17
38.990837 11.031177 1.7174129 6
37.824951 9.9049387 1.0578669 106
39.140976 11.083543 1.0167841 1
39.003853 11.074807 1.6874843 6
37.890991 10.21392 1.2590379 25
38.027645 10.464209 1.513999 25
38.108803 10.537572 1.6808016 34
37.844246 10.053594 1.103209 91
37.886738 10.24879 1.2399642 20
37.822006 9.8747663 0.96194023 135
37.884247 10.287237 1.3072056 6
38.184853 10.639773 1.7554507 11
37.887318 10.336621 1.3014905 9
37.803444 10.081134 1.0317812 125
37.863747 10.280016 1.2030991 32
37.77697 10.050335 0.93891293 128
37.884754 10.44172 1.3956163 1
38.072277 10.644938 1.641115 38
38.938271 11.122668 1.7586673 2
38.148354 10.693639 1.7372727 19
38.061661 10.690264 1.6080333 39
38.038754 10.706629 1.537269 36
37.852894 10.46192 1.3509109 6
37.797966 9.9881601 0.6821664 122
37.767899 10.107507 0.85872167 117
37.785316 9.9180641 0.57596475 83
37.77314 10.161056 0.84100771 133
37.77195 10.316033 1.0197905 133
37.763203 10.186573 0.66333312 115
37.772568 10.34914 0.99740005 130
37.758091 10.297143 0.82523483 115
37.786938 10.485552 1.1248565 106
37.819263 10.535882 1.2262245 44
37.735027 10.323467 0.65098292 113
37.739166 10.281898 0.57095432 96
37.80769 10.560738 1.1420267 88
37.778488 10.526086 1.0954155 109
37.986969 10.749269 1.4829462 12
38.031754 10.794003 1.5697743 38
38.045059 10.823845 1.5720282 40
38.074009 10.885159 1.7071884 22
37.803444 10.591377 1.1912405 71
38.083912 10.954421 1.3127604 1
37.763119 10.563314 1.1009187 124
37.741489 10.438799 0.74878561 124
37.748039 10.481587 0.72573334 122
38.668571 11.284366 1.6302367 19
39.028843 11.271725 1.8081114 1
37.720642 10.51014 0.61356461 93
37.716576 10.681315 0.89312088 129
37.711239 10.673567 0.83364207 140
37.71106 10.69324 0.9398585 141
37.731552 10.733173 1.0269094 147
37.776104 10.805389 1.1629881 96
37.704975 10.784432 0.98343611 129
38.043259 10.944328 1.6274645 51
38.882927 11.288373 1.7395283 15
38.966904 11.353796 1.7609942 3
38.005287 10.972302 1.5831987 49
37.927761 10.959181 1.4672209 67
37.731903 10.850563 1.0714934 133
37.89447 10.99588 1.3926519 77
37.910286 11.022805 1.4697611 74
37.925457 11.044877 1.4716501 106
37.793484 11.032143 1.2231125 132
37.684982 10.895504 0.90525448 150
37.670776 10.817387 0.63315201 106
37.770737 11.09841 1.2083768 136
37.937862 11.192036 1.5136511 82
38.223759 11.306924 1.708967 39
37.659496 10.931515 0.81935132 114
37.654678 10.910989 0.74960512 87
37.765877 11.171585 1.2033336 128
37.970184 11.266217 1.5453852 57
38.703819 11.477413 1.7978635 2
38.945404 11.554792 1.7986093 1
38.07473 11.34803 1.6077358 38
37.676083 11.10425 0.97357088 117
37.636234 11.044771 0.87534314 126
37.653015 11.106074 0.94856203 135
37.843418 11.299568 1.3722903 96
37.688122 11.008674 0.6152817 11
37.869095 11.312404 1.4491091 41
37.702068 11.16025 0.57100892 11
37.664791 11.206776 0.68339688 16
37.668724 11.310499 1.0373816 137
38.008335 11.449274 1.5459769 31
38.725746 11.710918 1.7812288 1
37.811035 11.427237 1.4035652 49
37.668434 11.351171 1.0027055 135
37.928654 11.545688 1.4536536 31
37.950706 11.564315 1.4982492 33
38.629776 11.747554 1.6951377 4
37.877705 11.615526 1.4162598 19
37.800285 11.594865 1.3737677 14
37.778816 11.566789 1.2702448 43
37.613331 11.319649 0.7571075 39
37.604752 11.365434 0.81238693 49
38.332539 11.993571 1.3182883 1
38.09499 11.986864 1.323647 5
37.757076 11.685349 1.2647672 47
37.760826 11.742823 1.3094021 20
37.607376 11.534752 0.85866255 118
37.752663 11.784392 1.1496207 42
37.599739 11.539411 0.78615868 98
37.745956 11.844999 1.1617966 36
37.567482 11.590615 0.64906412 53
37.586861 11.638031 0.65876102 94
37.893581 12.039961 1.072589 11
37.833195 11.988249 1.0767862 26
37.600925 11.784313 0.6620906 90
37.968571 12.05993 0.83248192 22
