# .PCD v0.7 - Point Cloud Data file format
VERSION 0.7
FIELDS x y z intensity
SIZE 4 4 4 4
TYPE F F F F
COUNT 1 1 1 1
WIDTH 363
HEIGHT 1
VIEWPOINT 0 0 0 1 0 0 0
POINTS 363
DATA ascii
38.940052 9.862278 1.6744863 3
38.976795 9.8534412 1.7074364 3
38.930817 9.8060064 1.7244614 3
38.979855 9.7837257 1.7141286 2
38.966557 9.9680033 1.7183205 3
38.88398 10.040359 1.6041657 4
39.088806 9.6898804 1.789745 1
39.01091 9.6112862 1.7722743 1
38.945332 10.141418 1.669993 12
38.871994 9.5988054 1.6030878 4
38.906624 10.11967 1.815931 11
38.890385 10.173613 1.5917493 7
38.873951 9.5389671 1.5912811 4
38.616898 9.7309427 1.6662529 4
38.833847 9.5314035 1.6256768 4
38.881451 9.5130224 1.7221227 2
38.905018 9.5310984 1.8365779 1
38.748352 9.5493708 1.5990956 3
38.912407 10.233798 1.7461416 12
38.848652 10.254942 1.7241578 17
38.589695 10.100466 1.6292857 11
38.794437 9.4513121 1.8235322 1
38.433506 9.7554731 1.6795979 4
38.529587 9.4726105 1.6680167 5
38.771751 10.39839 1.8180846 1
38.519608 10.355215 1.762784 14
38.386345 10.213757 1.6234586 25
38.258495 9.876358 1.7075716 7
38.548805 9.3376541 1.8753465 6
38.598312 10.462054 1.6668421 21
38.618893 10.481819 1.7076138 9
38.806976 10.552933 1.7264148 3
38.542259 9.2757673 1.8616643 150
39.192898 10.028097 0.99130917 3
39.126713 9.1118689 1.7967725 10
38.417126 10.445145 1.651436 33
38.488987 9.243679 1.8865144 24
38.638695 10.600535 1.6588895 11
39.064545 9.0827293 1.7990863 14
39.176208 9.1151543 1.8375337 9
38.141666 10.068616 1.6476941 43
38.122849 9.9896011 1.6912913 12
38.391689 9.2622213 1.8723111 6
39.076935 9.0281506 1.6872844 9
39.020649 9.0144367 1.5906017 15
38.454292 9.1811981 1.8667624 29
38.344524 9.2625999 1.8319058 7
38.099503 9.6853905 1.7154402 13
39.110336 9.0263987 1.8150436 1
38.395298 9.2513304 1.9914801 1
38.588871 9.0900154 1.9128925 14
38.609703 9.042532 1.6953802 18
39.053738 8.9972115 1.8262379 3
38.850773 10.74465 1.7238196 1
38.946308 8.9792309 1.5693271 11
38.44809 9.1361084 1.8268387 36
38.062286 9.6412878 1.7084111 11
38.143753 10.295429 1.6636132 40
38.01125 9.9431095 1.6231089 27
38.480873 9.0748892 1.8772993 45
38.009983 9.916398 1.5918894 31
38.715439 8.9529829 1.6187634 11
38.246037 9.2308702 1.739349 25
38.509781 9.1821575 2.1644359 1
38.01836 9.6487122 1.667033 22
38.005085 9.7370882 1.5603169 27
38.505932 9.065465 1.9701631 8
38.411648 9.0812998 1.8322086 16
38.107872 9.390913 1.7238904 10
38.210178 9.2382174 1.8085355 12
38.021961 10.175125 1.5963622 52
37.979454 10.019552 1.5834751 49
39.150608 8.9032526 1.752021 1
38.320759 9.0966444 1.766766 13
38.032837 9.4637089 1.6625463 26
38.014065 10.237864 1.5807203 47
38.423878 10.723477 1.7158351 6
37.988194 9.5421944 1.5766149 32
38.246502 9.1274433 1.7028941 22
38.990631 8.84799 1.6780285 13
38.137352 10.482471 1.5801499 43
37.946404 9.7218561 1.4611856 19
38.265305 10.635506 1.5986663 43
38.274128 10.648326 1.6364417 35
37.933758 9.8006582 1.4516547 5
37.933937 10.000255 1.4654801 74
38.314449 10.695667 1.7666492 2
38.024143 9.3599424 1.7597791 12
37.975491 9.4588776 1.5907828 31
39.024693 8.812871 1.7069966 4
38.392902 8.9616356 1.6873665 4
38.89418 8.8040047 1.6813031 17
38.009632 9.3519144 1.721339 18
38.312756 10.726043 1.726211 3
38.178146 9.113102 1.7086195 27
38.665268 8.8257103 1.6652454 30
37.944324 10.219864 1.481429 90
37.955223 9.4264965 1.5346588 24
37.907066 10.153258 1.4479505 96
37.884182 9.8480396 1.36449 3
37.897484 10.011292 1.3435119 3
37.940086 9.383543 1.5114975 18
37.994713 10.465666 1.5050509 39
38.037777 10.541027 1.5368538 33
37.894756 10.223663 1.3992089 99
38.164135 10.69573 1.5991731 31
38.111889 9.0764923 1.7162747 22
37.955124 9.2817011 1.8040752 22
37.984467 9.2188272 1.7396866 26
38.903008 8.7066574 1.626017 23
38.074047 9.088294 1.7021652 19
37.93589 9.2927723 1.5101417 25
37.940861 9.261776 1.7347751 32
37.951237 9.245801 1.5814332 30
37.879257 10.27017 1.3589779 98
37.923122 9.2956257 1.4689765 20
37.959076 9.2061415 1.7641292 29
37.894943 10.368922 1.4274768 81
37.981037 9.1652231 1.786028 28
37.945126 9.2195578 1.82128 12
38.933403 8.6689434 1.6466857 20
37.940586 9.2139597 1.7626107 32
37.938339 9.2028666 1.7230897 31
37.944595 9.1889915 1.656589 35
37.804493 9.602087 1.3630003 1
38.723618 8.8739367 1.0174942 15
37.921982 9.2478189 1.8867559 13
38.25391 8.8586302 1.709053 6
37.941216 9.1726274 1.5916139 38
37.943905 9.1760664 1.5329555 35
37.953838 9.1450968 1.651885 36
38.92284 8.6387691 1.6613754 16
37.987141 9.0915346 1.6958642 27
38.575657 8.8991394 1.0081322 23
37.787914 9.8710804 1.2382878 37
37.793728 9.7988768 1.2246729 32
37.892735 9.2358694 1.4800961 9
37.907883 9.192852 1.7953249 29
37.956348 9.1053753 1.6540353 30
37.913158 9.1914358 1.4807504 23
38.506004 10.983953 1.3556494 1
38.230537 8.8297825 1.6929536 11
37.938385 9.1190825 1.5519981 29
38.958916 8.6036224 1.657771 15
38.551682 8.785655 1.1426189 13
37.775932 9.5050039 1.2999046 11
37.902435 9.1636896 1.4210092 7
38.049664 8.9429045 1.679186 20
37.826 10.324287 1.2406029 125
38.597046 8.6259785 1.5761663 35
38.577152 8.6259842 1.5575887 50
37.862598 9.2037754 1.3872577 1
37.799046 10.269451 1.2093813 128
37.744804 9.8057652 1.1680658 70
37.875404 10.550707 1.3857874 40
38.99165 8.5607224 1.5817882 6
37.741825 9.9610329 1.1421876 109
38.141842 8.8170366 1.6440016 34
38.829468 8.5520058 1.5374931 21
37.862988 9.1178865 1.4600791 3
38.305531 10.981343 1.350183 1
38.471992 8.6111546 1.5088459 18
37.738285 10.096621 1.114755 121
37.771206 9.3545895 1.2253687 15
37.792709 10.427247 1.2215465 130
37.792152 9.2663374 1.2608125 16
37.843433 10.561251 1.2761004 40
37.936138 8.9582644 1.4925143 23
37.782787 9.2275438 1.3115329 5
39.19669 8.5224295 1.5599388 3
37.824989 10.538324 1.2482659 43
37.714092 9.6038933 1.1054087 99
37.759628 9.2474012 1.2924016 11
37.771866 9.2549286 1.2415134 23
37.775864 9.1852531 1.3399668 2
39.225491 8.5005455 1.630354 1
38.265995 8.6451502 1.5951122 44
39.076286 8.5016956 1.3798686 2
37.82132 10.578321 1.2340081 69
37.785454 9.1412039 1.340348 1
39.179337 8.4826088 1.6117312 1
37.696693 10.078397 1.060832 118
37.693607 9.6442118 1.0603921 114
38.045296 10.883698 1.2907704 24
37.77354 9.1601763 1.2903829 5
37.75811 9.228569 1.2238895 23
38.202099 8.8103294 1.0773994 53
37.862549 8.9689312 1.443313 3
37.985008 8.8385181 1.4251106 27
37.947758 8.8327484 1.5683022 33
37.68441 9.8902302 0.98069978 120
37.888096 8.9055872 1.4564241 18
39.126602 8.4554634 1.4027286 6
37.672482 10.010144 0.97848868 120
37.749546 9.1505699 1.2348095 13
37.978611 8.7738285 1.5375601 47
38.024395 8.851923 1.1530385 14
37.895561 8.8508739 1.5185457 27
38.074562 8.6762857 1.5566841 50
37.754597 10.574531 1.1119581 108
37.71196 9.2046442 1.1350876 76
39.120438 8.3938551 1.4509647 5
37.724239 9.13836 1.1837616 31
38.139446 8.6020594 1.5504105 39
37.656433 10.088449 0.89543116 105
37.78326 10.674232 1.1419008 95
37.701321 10.432102 1.003436 123
37.693489 10.384566 0.96295196 111
37.657001 9.427393 0.97681099 112
37.660843 9.7053003 0.83729827 120
37.661148 9.7915869 0.80357194 121
39.120277 8.3793297 1.407861 3
39.185089 8.3799801 1.3671403 3
37.729431 9.0142736 1.2167526 25
37.832687 8.8531456 1.2444515 11
37.680145 9.189374 1.0485786 127
37.985153 8.6250095 1.5551499 51
37.683414 9.140378 1.076543 107
37.652702 10.207711 0.86317945 103
37.759789 10.67069 1.0261194 90
37.740971 10.650231 1.0314169 109
37.833008 10.826486 1.1105701 38
37.657948 10.301072 0.85904229 75
39.112568 8.3327055 1.3487179 3
37.948048 10.982557 1.0393728 14
37.79026 10.79707 1.0251141 43
38.016438 8.5843916 1.2913673 33
37.963005 8.5937719 1.4209291 37
37.639023 10.227818 0.77954656 36
37.635735 10.006228 0.71215558 79
37.773624 10.860973 0.98175979 69
37.65485 9.2800102 0.98320836 117
37.753777 10.265913 0.58242583 9
37.656086 9.2359791 1.0043792 109
37.673157 9.1264582 1.0763786 105
37.731789 10.535886 0.6710273 40
37.738346 10.816406 0.88532764 104
37.659962 9.1646128 1.0284674 121
37.649685 9.2252188 0.95766407 113
37.646935 9.2333002 0.85899693 116
37.635212 9.1280575 0.97151834 114
37.639584 9.5301313 0.69621193 102
37.642483 9.1441069 0.9103995 118
37.639095 9.3340979 0.69274086 112
37.638126 9.8201246 0.55682296 85
37.672974 8.8629265 1.0833861 81
37.64463 9.1650152 0.76265979 116
37.64378 9.2354431 0.70885539 105
37.643379 9.1980181 0.734465 120
37.642178 9.1041279 0.79337746 114
39.224613 8.1798363 1.3574286 3
39.206547 8.2020607 1.2273487 4
39.18198 8.1608276 1.2707138 4
39.070168 8.1233044 1.1424611 1
37.639839 8.9187613 0.97006094 112
37.641476 9.2421942 0.66281086 101
37.902237 8.3807335 1.4790093 21
37.866917 8.3804245 1.4944466 14
37.826412 8.4285555 1.3738866 44
37.651482 8.7250185 1.0264388 124
37.828365 10.582865 0.58289969 22
37.784138 10.905624 0.81278342 56
37.99498 11.08618 0.73263812 4
37.673962 10.57187 0.73818737 50
37.749645 10.801121 0.74413812 92
37.705433 10.366084 0.56425273 8
37.627457 9.1381588 0.67150921 107
37.620552 9.1699553 0.61689973 103
37.624447 9.2783842 0.57045317 91
37.651714 8.5952892 1.0432549 105
37.695618 8.5009832 1.0666143 77
37.61908 8.7644281 0.82742459 113
37.640625 8.5106421 1.094242 93
37.63488 8.5878201 0.98060066 127
37.760147 8.2970972 1.3357471 40
37.626209 8.8375196 0.69395226 107
37.803974 8.1900282 1.4544699 2
39.272663 7.9493952 1.2695516 3
37.755077 10.982307 0.60703897 36
39.215546 7.9071012 1.2056594 3
39.161041 7.9153008 1.1132764 3
37.718616 8.2789726 1.2580342 54
37.801815 8.1526842 1.3812964 7
37.617794 8.3226261 1.2835668 44
37.789673 8.1851902 1.2835958 37
37.715664 8.2248945 1.185378 40
37.642609 8.2840109 1.1620212 45
37.538021 8.3947325 1.1676509 91
37.627182 8.6316156 0.75437617 119
37.626537 8.4115219 0.82272291 124
37.742653 8.0675926 1.2070926 45
38.828369 7.6590791 1.1863394 24
37.724197 8.046092 1.1926734 44
37.731289 8.0813217 1.1178057 72
37.791374 7.9675341 1.2468737 6
37.689346 8.1054735 1.1045389 56
38.845371 7.6252465 1.1845932 17
39.116318 7.5882788 1.2230345 3
37.642994 8.2010565 0.99702847 110
37.619171 8.3452587 0.85378653 126
37.611073 8.5061979 0.70198911 125
37.604557 8.6788158 0.55163151 90
38.195057 7.6787715 1.2697772 3
37.841297 7.8340359 1.2580171 7
37.62381 8.1750431 0.89915198 132
37.685905 7.996201 1.0836868 101
37.602238 8.3044004 0.55711854 89
37.608124 8.2794476 0.57051814 105
37.601395 8.2454205 0.59978497 94
37.598907 8.133667 0.72448754 108
38.562328 7.5440679 1.1360054 46
37.632992 8.0307875 0.98729873 103
37.905727 7.7277703 1.2503902 4
37.642368 7.9314942 0.97635037 126
37.64814 7.8914652 1.0024657 120
37.609249 8.0044518 0.87200952 109
37.587742 8.1368284 0.64154595 108
37.578396 8.0558195 0.6465252 64
37.635864 7.9653859 0.57220083 38
37.610096 7.8480248 0.97702754 115
37.659618 7.7927523 1.0560886 95
37.767834 7.6577911 1.124386 69
39.130825 7.3015113 1.2100924 1
38.163494 7.4284387 1.1358792 55
38.327152 7.3573008 1.1306202 49
37.679131 7.67518 1.049036 114
37.58725 7.8137665 0.88129479 118
37.565144 7.8373027 0.78946275 60
38.29903 7.3572497 1.11316 49
37.746567 7.5387297 1.0628933 92
37.549377 7.8311582 0.74821097 40
37.584244 7.7994246 0.73142034 29
38.899887 7.1907377 1.1474059 11
37.567204 7.6000128 0.84294742 85
37.595875 7.5459294 0.91709417 112
38.132217 7.2197905 1.1045071 58
37.559349 7.6504259 0.65075457 9
37.63303 7.6736979 0.54940856 5
37.584911 7.5280399 0.82208508 86
37.631832 7.4418139 0.95304829 135
38.881805 7.0301046 1.1530427 6
37.595276 7.3550072 0.87014019 150
37.577538 7.3617592 0.69787753 66
37.545597 7.3029485 0.76830792 136
37.915604 7.1295857 1.0759428 49
37.858627 7.1194925 1.0083188 69
37.958504 7.085258 1.0407465 56
37.593719 7.2444654 0.75475347 150
38.450821 6.9603391 1.03745 49
38.699753 6.7900896 1.0055538 9
37.568802 7.2036986 0.63280171 118
37.931313 6.9494443 0.99661636 70
37.755985 6.958384 0.79209477 70
37.953011 6.8920298 0.92895639 80
37.587242 7.120141 0.55510557 119
37.587353 7.0837393 0.58366197 129
37.923103 6.8802142 0.84498805 86
37.629578 7.0585532 0.53278196 125
38.183804 6.7711406 0.86986589 25
37.996811 6.7409143 0.79936975 43
38.292534 6.7091818 0.68341035 138
38.370831 6.67837 0.54981637 150
38.212994 6.73702 0.54448497 95
