# .PCD v0.7 - Point Cloud Data file format
VERSION 0.7
FIELDS x y z intensity
SIZE 4 4 4 4
TYPE F F F F
COUNT 1 1 1 1
WIDTH 356
HEIGHT 1
VIEWPOINT 0 0 0 1 0 0 0
POINTS 356
DATA ascii
38.822845 9.1177711 1.6358513 4
38.801472 9.1087093 1.6509014 4
38.94445 9.1574726 1.7346702 2
38.928169 9.1136951 1.7913672 1
38.821518 9.3170309 1.6441226 4
38.930347 9.2865963 1.6989061 3
38.880383 8.9925165 1.7945853 1
38.781284 9.3323507 1.6119889 3
38.579273 9.0869503 1.6524938 3
38.952854 9.3066492 1.7629702 1
38.820587 9.3751268 1.6971158 4
38.931961 9.350956 1.7635322 1
38.969688 9.3670416 1.7285796 1
38.700802 9.4091387 1.5965492 3
38.907185 9.4028873 1.8011502 1
38.878052 9.4764376 1.6627704 3
38.63728 9.435791 1.596151 4
38.842239 9.489275 1.6408929 3
38.878891 9.4897642 1.6468133 4
38.577419 9.4715605 1.6184119 3
38.93 9.523284 1.7713943 1
38.817841 9.5879402 1.6290228 4
38.978024 8.6796246 1.7693096 18
38.822521 8.6099548 1.6261187 10
38.356812 9.3154325 1.679806 4
38.821507 9.6387463 1.6199541 4
38.397923 9.4498749 1.68844 4
38.945412 9.6446409 1.6825711 3
38.313255 9.3189602 1.6838919 5
38.856121 9.66502 1.571166 8
38.893867 9.6655731 1.6253859 5
39.031876 8.6189613 1.828645 10
38.658173 8.5622396 1.6275121 6
38.789059 8.5417061 1.7187419 15
38.961773 9.6885815 1.7106147 8
38.94902 8.5389414 1.6718162 19
38.350849 9.5033674 1.6636397 6
38.930119 9.7146854 1.7132649 8
38.827579 9.7344398 1.6115395 18
38.224289 9.2934389 1.6734703 5
38.390907 8.7481108 1.9102008 25
38.311634 8.7694407 1.7651521 38
38.840965 9.7504864 1.6253371 16
38.851799 9.695652 1.9056628 3
38.323933 8.7266064 1.7978266 34
38.610752 9.7384024 1.6422955 13
38.681572 9.7572289 1.6782494 11
38.360401 8.728673 1.9009355 17
38.863659 9.7355413 1.8646609 5
38.259087 9.4582825 1.703908 5
38.556107 8.7561178 2.1222157 3
38.645061 9.7555685 1.7198646 7
38.434143 8.6705999 1.9653666 19
38.387951 8.7066584 1.9871533 10
38.177128 9.3691359 1.702062 6
38.134705 9.2216043 1.7239714 4
38.886425 9.7755985 1.921075 3
38.380939 8.6150484 1.9037391 20
38.304272 8.6106577 1.7274408 35
38.677982 9.8313799 1.7047813 8
38.618282 8.413888 1.6580812 19
38.19873 8.745183 1.7340901 33
38.854172 9.8293066 1.8158969 3
38.907112 9.792407 1.9350171 2
38.584515 9.8248339 1.6838375 12
38.08213 9.0681953 1.7300293 5
38.076195 9.0084496 1.7419156 5
38.059662 9.1359749 1.7274926 7
38.355335 8.7482529 2.1376135 1
38.821552 8.3371153 1.6579708 17
39.076305 9.4766903 0.98450804 9
38.041401 9.2891893 1.7275492 8
38.565403 8.6135263 1.059576 4
38.029015 9.2430029 1.7243457 8
38.181828 9.6205406 1.6634016 18
37.995476 9.1880445 1.7092506 12
38.721394 8.2809916 1.6479036 24
38.082119 8.7281961 1.7483212 19
38.077183 9.5165977 1.682212 13
38.050945 8.8597097 1.8792788 5
38.303688 9.7880116 1.6989484 28
38.195896 8.5436869 1.663886 15
38.919601 8.2730541 1.7357944 3
37.96645 8.9935474 1.7036694 19
38.54208 8.5033092 1.0892888 18
37.953644 9.0489855 1.68538 16
37.953201 9.0995913 1.7249335 12
37.963123 9.2950544 1.6755425 18
37.946724 9.2695751 1.6492569 22
38.022484 8.7377195 1.7378969 22
37.959587 9.3515625 1.6610168 23
37.924557 9.1050301 1.6785758 27
38.023026 9.5283747 1.6744562 25
37.99012 9.4594803 1.6522003 23
37.921696 9.2119617 1.6474924 25
38.657681 8.2203321 1.6180516 39
38.592625 8.4596663 1.032382 17
37.900982 9.0466328 1.6133828 29
38.230682 9.8332977 1.7131101 31
37.900436 9.2281303 1.5431892 28
37.990913 9.5558109 1.6244849 28
37.914043 9.3547153 1.5529522 25
37.92514 9.407526 1.6059897 29
37.941982 9.4706068 1.5581182 27
37.906895 9.3782578 1.5409715 25
38.327293 9.9032106 1.871691 4
37.897865 9.3434229 1.4891483 25
37.876583 9.2706318 1.5228472 20
37.865578 9.0361128 1.5421871 28
37.872047 8.9241314 1.5899868 34
37.987793 9.4843426 1.2864398 1
37.865139 8.9538937 1.5127131 29
37.938679 9.5365353 1.5857509 35
37.954105 8.6627741 1.6805704 29
38.357494 8.2525787 1.6194565 47
38.233517 9.8911009 1.7920022 18
38.376926 8.3866825 1.1489445 23
37.853794 9.3181334 1.5114394 22
37.944008 9.5895042 1.6051508 43
37.902081 9.4837275 1.4649444 16
37.981621 9.6713581 1.6176773 47
38.699673 8.1285419 1.4660133 16
38.2132 9.9263468 1.637508 43
37.945759 9.6335554 1.5543106 61
37.900528 9.5359793 1.4417044 23
37.842602 8.8233156 1.782396 26
37.827557 8.8108606 1.6614659 43
38.389294 8.1759577 1.5080646 21
38.780258 10.161488 1.7085181 3
37.88641 9.5638828 1.4759231 18
37.954365 8.530303 1.6931312 17
37.840126 8.7609291 1.4957126 19
37.825432 8.761796 1.5977437 38
37.817211 8.7849665 1.6976955 37
37.797386 8.8980761 1.4683295 5
38.079403 9.8820248 1.6608368 41
37.818756 8.7839775 1.7707065 27
38.509644 10.143932 1.6523994 14
37.938385 9.7223396 1.5567683 64
38.010136 9.8195677 1.5962886 39
37.896866 8.5638332 1.6217792 30
38.228363 10.022476 1.6236081 52
38.709621 10.191421 1.7326659 7
37.797997 8.8276701 1.4342411 6
38.945168 8.039238 1.6246154 2
37.924358 8.4870567 1.6665754 20
37.807404 8.6448851 1.5124772 33
38.077965 8.271697 1.6136191 45
38.843674 8.0118523 1.4128195 3
37.847122 9.6518841 1.3936986 46
37.789162 8.6655455 1.4600259 9
37.821762 9.5840406 1.3446453 18
37.812973 8.5909281 1.5491689 32
37.768799 8.7492561 1.3925763 1
37.82682 9.6109056 1.3697357 26
37.770771 9.3948984 1.2857836 19
38.403812 8.0588989 1.4649413 7
37.839893 8.5144634 1.6282223 31
37.761433 9.4676714 1.3334821 5
37.961845 9.9018545 1.5227216 37
37.748108 9.461669 1.3256955 11
38.141285 10.090487 1.6069409 39
37.680363 9.2031708 1.3168658 3
37.719856 9.3489971 1.2502618 24
37.69669 9.2849512 1.2853384 16
37.725433 9.4122028 1.2725214 11
37.735825 9.5173054 1.3496522 9
37.843086 9.7777309 1.3925773 121
37.800682 9.6745119 1.3051739 117
37.791508 8.4984331 1.4747158 25
37.674389 8.819643 1.3746841 1
37.813572 8.4511499 1.4997424 32
37.82579 8.4166279 1.5963845 39
37.668434 8.8492041 1.28476 6
37.769398 9.6577177 1.2795246 19
38.243305 10.211635 1.6029936 39
39.03162 7.8856201 1.5075082 1
37.727123 9.5623875 1.200225 40
37.796989 9.769104 1.2910607 115
38.188938 10.211197 1.634783 37
37.654434 9.2779341 1.1476455 82
37.733112 8.4965029 1.3856021 1
37.632511 8.9385138 1.1923326 50
38.0285 10.121295 1.5015005 35
37.63641 8.9762583 1.1555092 46
37.892776 9.9917927 1.4627206 33
37.624302 9.0608673 1.1561748 76
37.636089 8.8004351 1.2320307 33
37.838314 8.2861824 1.4764889 58
37.931789 10.057066 1.4844695 37
37.856304 8.2401304 1.5635539 46
38.239029 10.293698 1.6988281 10
37.658188 8.6053391 1.265812 3
37.651405 9.4599781 1.0966992 111
37.89888 10.068038 1.451535 27
37.623203 8.6413479 1.2815686 13
37.675442 9.5832253 1.1224004 109
37.670776 9.5648136 1.0949926 116
37.725651 9.7577095 1.1600143 121
37.605885 9.2214508 1.0424352 107
37.643147 9.4731474 1.0583183 122
37.662891 9.590724 1.0945381 110
37.644958 9.5241766 1.07867 132
37.621159 9.4026527 1.0394413 123
37.604614 9.3171062 1.0183691 113
37.810326 10.008164 1.2968802 110
38.896099 7.7789617 1.2470559 1
37.629932 9.5177126 1.0279189 111
37.608795 9.3772745 0.98832309 117
37.59539 8.6282978 1.1722529 34
37.610657 8.4667692 1.3333547 2
37.680653 9.7271042 1.0492866 116
37.723816 9.8885489 1.1520246 124
38.018528 10.280108 1.4258952 13
37.549973 8.7699566 1.0348819 107
37.68132 9.8441191 1.0853378 99
38.158821 10.404634 1.4408299 1
37.591156 9.3114901 0.87002248 116
39.06815 7.6917181 1.3720971 1
37.621445 9.6103888 0.94169992 122
37.557606 9.0002499 0.89038217 107
37.606483 8.3639641 1.2617946 5
37.542614 8.8626232 0.93286049 122
39.02911 7.6857071 1.2955743 3
37.710396 9.9689579 1.1034908 118
37.580669 8.4355831 1.1380841 48
37.532997 8.8936272 0.90278989 108
37.5238 8.709321 0.98177916 115
38.191093 10.458729 1.3580649 3
37.890984 10.278718 1.3579512 15
37.850307 10.253237 1.2925241 26
37.781952 10.171303 1.2084348 81
37.59586 9.5694332 0.84572363 110
37.596607 9.5140018 0.82271111 126
37.598515 9.5619974 0.8203516 110
37.592709 9.536068 0.79337108 111
37.58712 9.4933014 0.77489638 120
37.605549 9.7204971 0.84057486 86
37.573956 9.2561359 0.75143081 107
37.587181 9.4366608 0.75208735 126
37.628433 9.8772659 0.91458446 107
37.719532 10.133172 1.0569087 115
37.576157 9.3619747 0.7262795 112
37.584084 9.4333305 0.69712937 119
37.580505 9.6415634 0.76579261 80
37.644642 10.005649 0.8998552 91
37.591881 9.7906723 0.78918117 35
37.520821 8.544445 1.0308931 126
37.915241 10.460464 1.2368224 37
37.851143 10.415028 1.1882021 39
37.518284 8.5079727 1.0259858 122
37.886646 10.461229 1.2463496 37
37.630409 9.6957798 0.64119929 21
37.643547 10.049859 0.87456572 91
37.551098 8.3948021 1.0834602 79
37.809341 7.9479933 1.5240258 6
37.691715 8.071909 1.2983274 43
37.529457 8.366993 1.0792639 101
37.504681 8.6027355 0.89041698 116
37.511108 8.4312172 0.97647083 108
37.518272 8.7167215 0.75153941 114
37.570377 8.1840897 1.1275533 73
37.545769 8.1303215 1.2434577 32
37.495926 8.3253174 1.0008795 114
37.523758 8.8010178 0.65354401 104
37.535557 8.9453325 0.60558158 87
37.514843 8.6409378 0.70102674 110
37.860039 10.553644 1.2682441 1
37.678719 10.184435 0.89302367 101
37.728931 10.288281 0.9421947 107
37.818699 10.467549 1.0851625 39
37.558548 9.3571548 0.58314121 86
37.718781 10.052928 0.61088949 14
37.656242 9.8778944 0.54239547 9
39.017368 7.6158452 1.163398 3
39.015106 7.5129724 1.147159 4
39.02243 7.4814811 1.0879012 9
37.682083 10.280419 0.79847848 101
37.87606 10.572821 0.9660098 27
37.833881 10.195326 0.55249792 13
37.875298 10.587485 0.91323352 25
38.885254 7.3008537 1.1423869 13
37.511425 8.8357792 0.61688524 97
37.476536 8.3901978 0.87870902 119
37.497395 8.4629889 0.75518364 117
37.494255 8.4763126 0.74026936 118
37.547523 7.9467673 1.2761519 47
37.437141 8.0070419 1.1923184 94
37.477436 8.1982536 0.88799608 115
37.475555 8.2709312 0.82314366 116
38.68576 7.2883406 1.1099764 38
37.528019 7.8613257 1.1276705 42
37.518002 7.8843207 1.1123196 43
37.47496 8.2453585 0.77204967 106
37.459148 8.065794 0.89093471 119
37.55481 7.705008 1.1285433 44
37.465733 8.3116217 0.71749604 114
38.386063 7.2210369 1.1047018 58
37.650494 10.27547 0.65072817 38
37.707661 10.410719 0.66032368 79
37.48119 8.5638542 0.60778254 101
37.469959 7.8296766 0.9707582 125
38.077209 7.2030253 1.1650616 48
38.261902 7.1642718 1.1360685 43
37.464798 8.3732672 0.58538789 96
37.457993 8.0151329 0.66882503 112
37.466675 7.6318884 0.9946816 98
38.220726 7.1115737 1.1425723 47
37.461697 7.6772881 0.92386693 109
37.553387 7.4183373 1.1452466 47
37.447617 8.1755409 0.55711895 76
38.832096 7.0003829 1.20386 4
38.644833 6.966022 1.1520897 24
38.500935 6.9665647 1.1328367 36
37.464165 8.0619173 0.56096548 87
37.436275 7.9632177 0.62888366 101
37.554863 7.3675237 1.1374717 39
37.471615 7.4489999 1.0079236 113
37.407269 7.6252642 0.78083229 94
38.795246 6.7632399 1.1876178 3
37.528469 7.4585104 0.53289157 6
37.398315 7.3717651 0.88576216 99
37.861904 6.9062934 1.1096545 50
37.391251 7.4936037 0.71286809 41
38.452103 6.7747903 1.0755241 43
38.530304 6.688077 1.0927671 29
37.448029 7.2012763 0.97909635 121
37.437958 7.1831322 0.93965662 123
37.747982 6.9377217 1.0727286 53
37.882397 6.8511138 1.0969826 57
37.381554 7.1924396 0.8849768 107
38.593372 6.6755557 1.097175 25
38.689522 6.5673461 1.2052003 1
37.795773 6.8231516 1.0849584 57
37.360264 7.1162829 0.77091271 59
37.393761 6.9892702 0.79743654 150
38.532909 6.4986739 1.078824 15
38.531181 6.4019318 1.0664779 10
38.506279 6.3549995 1.0355456 5
37.369236 7.010499 0.72181416 90
38.543999 6.3107343 1.0781447 1
37.364956 6.9583073 0.73520589 106
37.526264 6.7436733 0.90454221 76
37.744389 6.6306648 1.0293612 68
37.361858 6.8668723 0.64663094 122
37.713379 6.5869093 0.98653382 72
37.690807 6.594552 0.92510831 76
37.391342 6.7864909 0.60310292 142
37.931389 6.5317426 0.99873447 50
37.374916 6.7274008 0.56810212 133
38.33152 6.2179623 0.60187441 9
37.862247 6.3918648 0.87140131 28
37.838562 6.3728161 0.77972275 35
37.813839 6.4077487 0.69667512 50
37.790188 6.3737741 0.7913118 47
37.484314 6.5886226 0.67215985 73
