# .PCD v0.7 - Point Cloud Data file format
VERSION 0.7
FIELDS x y z intensity
SIZE 4 4 4 4
TYPE F F F F
COUNT 1 1 1 1
WIDTH 303
HEIGHT 1
VIEWPOINT 0 0 0 1 0 0 0
POINTS 303
DATA ascii
37.714832 8.8383846 1.424504 88
37.696339 8.8909311 1.3726881 101
37.725105 8.9154387 1.4361116 95
37.692356 8.7698994 1.3870133 71
37.722523 8.7173367 1.4988343 45
37.808392 8.8259802 1.5966489 44
37.651897 8.9523935 1.2396477 112
37.890903 8.9052334 1.6017349 38
37.578854 8.7996311 1.2043048 91
37.734825 8.5984688 1.5285028 29
37.734856 9.1015244 1.3810031 81
37.810783 9.0860004 1.4637365 41
37.721062 8.5563288 1.5007238 20
37.557159 8.6214151 1.2500054 18
37.736137 8.5262461 1.5168973 28
37.532463 8.6923122 1.1922851 42
37.987194 8.8526344 1.6135707 33
37.720947 9.1664371 1.37431 51
37.889374 9.0947475 1.5474584 35
37.550728 8.5866957 1.2770427 18
37.597946 8.9965038 1.1424524 101
37.749851 8.5273352 1.585655 31
37.736519 8.505024 1.5543455 33
37.718784 9.1861229 1.3166749 59
37.833275 9.185317 1.4583549 28
37.691208 9.1799622 1.2629985 92
37.514915 8.6450977 1.1655703 70
37.730114 9.2138653 1.3535937 41
37.976852 9.0851517 1.562986 38
37.792549 9.2227898 1.4167287 34
37.674202 9.1670189 1.2107873 121
37.572601 8.4849081 1.2987734 3
38.04871 8.7648306 1.6495243 25
37.784317 8.5044384 1.6576356 22
38.008183 9.061698 1.630628 37
37.734169 9.2563248 1.3249866 70
37.836567 8.5271626 1.7035728 9
38.082394 8.8876715 1.66049 27
37.715244 9.2773848 1.3058252 39
37.61182 9.1526413 1.1105143 118
37.700867 9.2584229 1.2416573 97
37.931202 9.2384529 1.4846326 29
37.491627 8.8246136 1.0158324 111
37.879913 9.2744551 1.4861046 27
37.656815 9.2276945 1.166827 111
37.602695 9.1612225 1.1003592 115
37.729126 9.2924051 1.2761155 45
37.728951 9.2862177 1.2535169 78
37.737633 8.4284515 1.6782799 15
37.601185 8.3771629 1.3281438 1
37.990482 9.225769 1.5313612 37
37.936192 9.2875872 1.4939274 32
38.174084 8.8955507 1.6322581 22
37.628899 8.3356504 1.4331974 8
37.602493 9.1898937 1.0586133 118
37.60952 9.2128124 1.0667516 115
37.938469 9.3204298 1.4855782 32
38.033642 9.2435513 1.570449 35
37.648167 8.3013382 1.4731526 16
37.928043 9.3383436 1.4673462 34
37.451893 8.6854553 0.97052842 125
37.566101 9.1548815 1.0045878 104
37.99427 9.2961512 1.5644066 37
37.953674 9.3386536 1.5040547 41
37.954597 9.3366413 1.5296888 43
38.083179 9.2498226 1.5584317 40
37.98217 9.3261461 1.5433216 38
37.458702 8.8866835 0.90665054 99
37.739044 9.3880873 1.2399663 29
38.16441 9.1647482 1.6150336 28
37.551483 9.1610765 0.95145261 113
37.600834 9.2652435 1.0237417 110
37.944351 9.3901463 1.4777693 31
37.677284 8.2442522 1.5005496 25
37.461338 8.2920475 1.3743216 1
37.70031 8.2690172 1.6388655 30
37.42305 8.4630728 1.0436033 114
37.598511 9.2689619 0.99844778 113
37.43232 8.4209862 1.0666497 100
37.41412 8.5009727 1.0019197 103
37.577427 9.2502909 0.98151225 99
38.068375 8.9148731 1.9304291 2
38.302971 8.9104424 1.6665533 17
37.61676 9.3072634 0.99927706 109
38.067825 8.9643841 1.9473639 1
38.151001 9.2783413 1.6043409 30
37.769146 9.4687796 1.2535647 36
37.416424 8.3770924 1.0652989 99
37.420467 8.5456495 0.91582412 121
37.998745 9.3842955 1.6610829 4
38.21719 8.9674025 1.8348718 7
37.968376 9.4481535 1.4829795 31
37.665215 8.1917934 1.569661 30
37.746147 8.2224426 1.7030782 10
37.517078 9.113925 0.83714658 63
37.56155 9.2494297 0.89677757 102
37.513226 9.1467524 0.84177244 83
38.206585 9.2839937 1.6145273 18
37.454468 8.2313709 1.2065079 28
38.284115 9.1993294 1.6214397 23
38.045403 9.4355516 1.6408398 3
38.140034 9.3465471 1.6960671 5
38.427212 8.8447971 1.5947888 18
37.51825 9.1744862 0.80280745 36
37.417397 8.7219248 0.76292014 94
38.272926 9.2800903 1.6199881 18
37.405827 8.2298403 1.1220797 92
38.329899 9.2174625 1.6226209 23
37.705162 8.1288958 1.6883954 19
37.524593 9.2066927 0.7851333 67
38.185665 9.3894958 1.672089 7
37.64653 9.4663458 0.98587972 88
37.557255 9.2278776 0.76385307 48
37.840527 9.5980568 1.2762786 18
37.485653 8.0959034 1.2914622 2
37.938869 9.5949478 1.3188423 5
37.524029 9.1561384 0.71888626 37
38.283787 9.3480396 1.6532903 19
38.376228 9.2276497 1.6423901 18
38.299648 9.3529615 1.6294271 18
38.504635 8.7820835 1.5941433 14
38.264118 9.3779135 1.6838063 10
37.742325 8.0687275 1.6909964 12
37.411213 8.5871601 0.70774299 119
38.163036 9.4632692 1.717157 1
38.326839 9.3425255 1.6617645 4
37.592007 9.2647848 0.72524107 44
38.260586 9.4006252 1.7081474 3
37.396561 8.1079397 1.1719078 44
37.424068 8.7972736 0.63903928 12
38.347672 9.3493586 1.6665444 6
37.695896 9.5694542 0.99305451 47
38.534512 8.856658 1.6492444 13
38.262348 9.3999138 1.7542164 1
38.279991 9.4127445 1.7245892 3
37.619488 9.2843084 0.69087023 34
38.387875 9.3026247 1.7053573 4
37.541809 9.1902218 0.65374529 20
37.361343 8.3519249 0.79375082 107
37.567841 7.9801254 1.4589077 18
38.436874 9.2708797 1.6672031 8
38.309631 9.3871355 1.7637625 1
38.430016 9.2533321 1.72096 3
38.501106 9.1799498 1.6301368 9
37.555134 9.3497009 0.72320616 46
37.641155 9.286725 0.66242713 25
37.627254 8.0102186 1.7354448 22
37.362865 8.3205681 0.7897144 103
38.301693 9.4485779 1.7080134 3
37.357422 8.298995 0.80491328 108
38.452389 8.3562336 1.6062546 3
37.791458 9.6665125 1.0802492 29
38.581814 8.9094658 1.6649908 11
37.537415 7.9523687 1.4342223 4
37.343327 8.2309113 0.86756647 108
37.336315 8.1456041 0.96067858 116
38.528858 8.4516077 1.5878557 3
37.627132 7.9655952 1.7206727 17
37.572601 7.9244046 1.5081589 25
37.378952 8.461998 0.64372516 110
38.551121 9.1589937 1.674247 5
37.388885 7.9830956 1.2048303 31
38.643101 8.6914978 1.5562676 6
38.605965 8.5804253 1.6276876 3
37.955688 9.7420416 1.2532039 4
37.347431 7.9586401 1.3824856 0
37.358772 8.0148773 1.0974616 80
37.657684 7.9231234 1.7071512 23
38.583035 9.1701832 1.664693 8
37.577599 7.8843069 1.4888768 18
38.241043 8.0894756 1.7360113 6
38.532902 9.263135 1.7528261 2
38.623108 8.5123062 1.6315165 3
37.649883 9.3232155 0.56549984 17
37.812157 7.9212942 1.789811 9
37.317253 8.1053905 0.88670146 112
37.395496 7.8971219 1.2282346 14
38.681156 8.6413813 1.7001027 3
38.708729 8.7299976 1.6635827 21
37.637928 9.5723372 0.70114756 82
37.852962 9.7909012 1.0249919 9
37.340786 7.9020395 1.1070417 81
37.558681 7.7903156 1.5087469 30
38.756893 8.9235144 1.7120312 3
38.673492 8.3669367 1.6309735 3
38.729382 8.708457 1.8332257 6
38.724155 8.8138504 1.8856499 2
37.283558 7.9082355 0.98958945 114
37.720909 9.6910458 0.70135462 43
38.037769 7.7867956 1.6853952 33
38.785839 8.9392519 1.7879438 1
38.752457 8.4670973 1.6986852 3
37.299248 8.0827456 0.68501818 107
38.040455 7.7995772 1.7558187 41
38.726646 8.3678579 1.6635809 3
38.116833 7.8407159 1.8178974 42
37.279514 7.9494238 0.83700299 111
38.729816 8.7783327 1.9694973 1
38.708317 8.3578367 1.7615656 1
37.406765 7.7294416 1.2837573 3
38.740456 8.349082 1.6737045 2
37.297588 8.1323109 0.58543378 77
37.268726 7.8431745 0.98415875 114
37.288452 8.0519009 0.65111381 102
38.819836 8.7287931 1.8402683 2
38.836586 8.7491837 1.7983543 1
37.259262 7.8264651 0.98482591 113
37.346157 7.7041287 1.272092 3
38.08736 7.7473364 1.8146718 33
37.950966 9.8268347 0.73829955 8
38.085697 7.695302 1.6867117 25
37.638275 7.6360226 1.6940173 11
37.275955 7.9849229 0.63269234 95
38.822906 8.2606783 1.7197028 1
38.771908 8.1417751 1.755585 1
37.2327 7.7197547 0.90765542 118
37.786621 7.5286579 1.6693321 8
38.95826 8.5851164 0.98142278 2
37.586685 7.5202332 1.6824549 20
37.254154 7.9009943 0.55495465 84
37.237053 7.786829 0.7069819 107
37.843231 7.4809818 1.6366762 34
37.223736 7.7139521 0.78811073 111
37.253559 7.5737753 1.0761081 99
38.420509 7.6436639 1.6030886 8
37.231777 7.7162504 0.73635197 108
37.293903 7.5041022 1.1658958 31
37.438271 7.4650373 1.1349721 31
38.237514 7.5822487 0.96757323 18
37.889122 7.4010191 1.6011302 40
38.132061 7.4149351 1.6469686 25
37.248592 7.4175534 1.1336203 38
37.523357 7.3237543 1.5098372 56
37.487358 7.3134823 1.5008079 49
37.201664 7.5584259 0.67745644 113
38.076336 7.3189778 1.586553 46
38.030647 7.2607374 1.4753724 11
37.178761 7.4326987 0.84875882 117
37.1833 7.5262318 0.58972734 90
38.662617 7.51056 1.7507049 3
38.765728 7.577343 1.8415719 10
38.506367 7.374742 1.6748227 7
37.168365 7.2915282 0.99635905 111
38.383167 7.2630768 1.6260965 28
38.231281 7.188025 1.4840219 10
38.205925 7.1689858 1.5188609 31
37.341801 7.1425962 1.3275778 45
37.152142 7.2498732 0.92372733 119
38.391319 7.179646 1.5374115 23
37.156937 7.1478786 1.1256617 43
37.30563 7.0904603 1.3543966 42
37.147758 7.2946715 0.60474354 100
37.14291 7.1038094 1.2034205 42
37.112347 7.094337 0.81047058 112
37.189468 6.9701376 1.1313356 39
37.092472 7.0947585 0.69988257 110
37.199673 6.8773866 1.1859504 62
37.146732 6.8863654 1.0311508 86
37.171066 6.8587317 1.0645036 85
37.073254 6.8110108 0.92336994 104
37.041813 6.8892627 0.63057315 94
38.609135 6.973639 1.3596689 4
38.677406 6.9748998 1.5940282 1
38.665257 6.942215 1.4168205 4
37.086506 6.6612711 1.0235698 113
37.127144 6.5553246 1.1200589 35
37.060913 6.6114187 0.9679929 109
37.066513 6.5922327 0.96683091 109
36.99995 6.6649156 0.70087987 52
38.616161 6.8281145 1.3601273 4
37.78727 6.4193883 1.2711042 2
38.766171 6.7171836 1.3102536 3
38.722626 6.6632466 1.3597045 2
38.567062 6.6887035 1.1188008 1
37.481312 6.3631692 1.2124318 8
36.962864 6.4392209 0.86816335 95
36.987923 6.402844 0.91594082 115
37.386707 6.2760239 1.1382689 51
36.998856 6.3402619 0.9016633 114
36.992348 6.333694 0.85488057 106
37.773331 6.2615919 1.1407844 42
37.942329 6.1768122 1.1351527 49
37.15464 6.1837559 1.0629141 82
36.903015 6.2654452 0.69014168 29
38.407684 6.2080474 1.2249075 5
36.905415 6.2286768 0.69629824 37
37.121803 6.0247693 1.0367938 74
37.503021 5.9739718 1.0847112 55
36.966183 6.0866222 0.72193527 150
36.97176 6.0686579 0.82619977 150
36.957203 6.0330772 0.87398136 150
38.149246 5.9493952 1.1166896 37
37.837238 5.8912697 1.0896068 40
36.910275 5.9147673 0.63278937 150
37.057873 5.8061199 0.87295145 44
37.356979 5.7150497 0.98639542 72
37.046288 5.8206797 0.72276014 83
36.95871 5.8485861 0.57981992 43
37.761768 5.672863 1.0590293 42
37.802299 5.6152401 1.0245323 43
37.136543 5.6093178 0.6652804 87
37.298512 5.5954576 0.56009895 48
37.45837 5.4959841 0.79898077 30
