# .PCD v0.7 - Point Cloud Data file format
VERSION 0.7
FIELDS x y z intensity
SIZE 4 4 4 4
TYPE F F F F
COUNT 1 1 1 1
WIDTH 213
HEIGHT 1
VIEWPOINT 0 0 0 1 0 0 0
POINTS 213
DATA ascii
37.203812 4.3706875 0.6632182 82
37.210148 4.4653263 0.82061964 31
36.928669 4.4953499 0.66234368 30
37.05241 4.6874533 1.0142187 44
36.791935 4.591064 0.87370682 41
37.551998 4.5305033 1.0560046 24
36.728664 4.7070217 0.87539625 82
37.239979 4.9521861 1.0869664 55
36.699978 4.8415389 0.97635287 72
36.583214 4.8252759 0.62875193 44
36.738819 4.9416242 1.0207763 76
37.838017 4.6575036 1.1481067 4
37.796547 4.7981582 1.1220767 19
36.687408 5.0996909 1.0570909 73
36.522064 5.0598488 0.78141826 130
36.932426 5.1977797 1.1085904 51
37.522209 5.2348242 1.1243891 56
37.934605 4.9420462 1.1916958 5
36.44622 5.1718297 0.67583638 117
36.457172 5.1924953 0.70372915 95
36.559193 5.3061423 0.89479017 127
36.767685 5.3698363 1.1102941 67
37.990791 5.0625811 1.2116932 4
36.55645 5.3353753 0.91478717 117
37.029076 5.4385166 1.2333329 8
36.509907 5.3917909 0.58100528 6
36.515079 5.407021 0.80688411 81
36.728504 5.491972 1.0962983 48
38.084251 5.2289667 1.2213684 4
36.647812 5.5680838 0.98828787 111
36.569134 5.6004672 0.68388689 29
36.646118 5.6712575 0.61738628 10
36.612926 5.6458445 0.93443751 115
36.770126 5.6321998 1.195327 18
36.631882 5.7500958 0.9033851 104
36.753498 5.8312941 1.0711089 88
36.729839 5.8860331 1.0590531 89
36.846619 5.9040403 1.2598363 34
36.661533 5.9334388 0.70316195 92
38.232674 5.5194063 1.257527 5
36.7075 6.0460696 0.64530075 106
36.732262 6.1491671 0.62308234 101
38.200768 5.7856655 1.3566676 3
36.900459 6.0812316 1.2859485 42
36.870255 6.1024699 1.1467988 27
36.770161 6.1096377 1.2121856 41
36.93795 6.1761475 1.3245897 46
36.754601 6.2044373 0.86568338 115
36.7425 6.2020907 0.76964265 103
37.08762 6.2631798 1.4590645 37
37.689579 6.2126884 1.5182409 27
36.950806 6.3702021 1.2309712 46
38.125156 6.041224 1.4735762 6
36.851482 6.3719182 1.0656992 74
37.703339 6.2727089 1.5521467 35
36.786919 6.3730121 0.77452385 108
37.966587 6.2807837 1.6196216 39
38.054745 6.2706041 1.6266631 21
36.809006 6.4711213 0.8460983 102
37.042027 6.4480624 1.3891163 3
37.75687 6.4904985 1.059942 23
37.2999 6.4523416 1.6213778 33
37.771278 6.4477749 1.6697031 15
36.996349 6.5541596 1.2478045 3
37.613327 6.5157475 1.6915864 15
37.141716 6.6026468 1.4396967 12
37.199642 6.6725502 1.2562145 0
36.853645 6.5974393 0.9279688 116
36.83506 6.5215116 0.59676778 98
36.838039 6.5810099 0.63350576 101
36.877766 6.6893368 0.81301945 112
36.893185 6.7401037 0.92103714 118
36.89436 6.7521801 0.84408438 107
37.181755 6.7293024 1.4483361 9
38.140205 6.5712681 1.6667633 14
38.287289 6.4695206 1.7659838 1
37.159653 6.7459755 1.4239365 9
36.956154 6.82726 1.0730225 97
36.952679 6.8671346 1.015552 106
37.235523 6.8292708 1.5891324 41
37.697357 6.6807761 1.7285581 41
36.973999 6.9246507 1.0516495 109
38.357262 6.4758406 1.7713723 10
38.399738 6.4974957 1.754824 1
36.954876 7.0286384 0.53540349 70
36.978188 7.0110955 1.000904 102
37.229622 6.9387436 1.3484681 1
37.227779 6.924161 1.6292725 39
37.077507 7.057271 1.2172767 32
37.100426 7.0606194 1.1905646 26
36.98188 7.0873938 0.63822591 96
36.996754 7.112185 0.68468064 102
37.264217 7.0006189 1.5309304 27
37.107956 7.1038561 1.2459506 21
37.83717 6.6749358 1.826437 24
38.047672 6.7078991 1.8092036 18
37.938789 6.7064848 1.9059356 10
37.736725 6.7990656 1.7591869 35
37.782127 6.7727413 1.8830485 21
37.026443 7.2100377 0.73256427 110
37.055645 7.2722826 0.90299493 111
37.08083 7.2820406 1.0792528 96
37.366608 7.0635114 1.7338868 13
37.039818 7.2742538 0.74067712 106
37.059303 7.3076773 0.80029351 110
37.405563 7.2351623 1.3897545 1
37.091484 7.3456144 1.0002209 111
37.349083 7.2995977 1.4068393 1
37.092964 7.3973689 0.93200827 114
37.078262 7.4338341 0.56429189 83
37.08197 7.4526458 0.5310446 44
37.154766 7.4367356 1.1127967 93
37.114544 7.5096474 0.82987404 110
37.129646 7.5220666 0.96635652 111
37.834698 6.8712478 1.917701 1
37.79681 6.9434037 1.8595341 10
38.280174 7.0529838 1.8071831 1
38.371506 7.1766863 1.6659862 3
37.922409 7.2194796 1.6320323 3
37.378014 7.2772045 1.6083606 34
37.242149 7.4399214 1.2253115 23
37.21233 7.561718 1.1540843 74
37.456936 7.4748864 1.5149835 25
37.407547 7.5042176 1.4830955 17
37.444 7.4629521 1.6198221 24
37.192295 7.5984716 1.0834087 96
37.215012 7.6012568 1.1115477 95
37.41552 7.5284185 1.4869118 19
37.398373 7.5404959 1.4530041 12
38.335705 7.3284397 1.6714137 2
38.242653 7.433569 1.651053 3
38.463757 7.3751369 1.7520827 1
37.143017 7.6067562 0.75610572 117
37.295486 7.605968 1.3116523 9
37.127972 7.684588 0.66501468 90
37.527187 7.5599713 1.6805954 21
37.351624 7.7071652 1.3060555 8
37.682861 7.6729493 1.6405421 20
37.248287 7.7457643 1.1227694 100
37.195053 7.7545247 0.98566139 125
37.18885 7.776629 0.92188984 121
37.151184 7.7615519 0.64558595 26
38.461689 7.4976401 1.6901238 1
38.512852 7.4748383 1.7225053 1
37.834435 7.730927 1.6156775 28
37.474995 7.7793074 1.5003107 63
37.383286 7.8155236 1.2705917 118
37.51659 7.7911468 1.5358001 43
37.350193 7.8396416 1.2314038 105
37.618176 7.7691474 1.6190692 39
37.521416 7.8234372 1.5269061 71
37.314663 7.8864846 1.1553559 114
38.440453 7.638741 1.6205508 4
38.510956 7.6780958 1.7339357 9
38.479294 7.6874857 1.7751839 17
38.460556 7.6768794 1.911499 2
37.333675 7.9168477 1.1903268 120
37.417309 7.9772611 1.2679722 112
38.285347 7.770793 1.6026475 13
37.793037 7.8644748 1.7199646 27
38.505505 7.746757 1.8192848 17
37.221039 7.9613161 0.83676589 84
37.725891 7.9663811 1.6742574 38
37.210381 7.9713936 0.74536192 35
37.242512 7.9316077 0.61029613 6
37.208473 7.9855466 0.71880931 17
37.46331 8.0050516 1.3786089 73
37.537769 8.0327053 1.4321822 46
37.298229 8.0813007 0.99186027 113
37.497749 8.0819225 1.3934616 72
37.250221 8.0651464 0.86403465 80
37.458473 8.1092415 1.321738 98
38.294285 7.8956723 1.652532 13
38.073875 7.9642015 1.75587 7
38.487469 7.9139142 1.6689543 6
37.954945 7.9989796 1.6666471 29
37.33691 8.17243 1.0074959 106
37.289722 8.1948185 0.89344937 86
37.683159 8.1001902 1.5690477 35
37.371189 8.2167702 1.0806812 112
38.596626 7.9874768 1.6984122 8
38.624592 7.9799409 1.7532114 1
37.53273 8.1946249 1.4346081 29
37.448845 8.2075739 1.2134687 102
37.318806 8.2944679 0.81225365 83
37.745899 8.1578321 1.5612246 41
38.202454 8.0889702 1.6400629 15
37.768623 8.2674465 1.5653009 49
37.778618 8.27384 1.5646759 45
37.519039 8.372551 1.294377 27
37.34621 8.3709345 0.73591805 42
37.440456 8.4185352 1.0507714 81
37.444794 8.4231396 1.0392407 88
37.504658 8.4021645 1.1623571 44
37.685871 8.3587828 1.4069929 16
37.458126 8.5120878 0.9571256 87
37.416904 8.5377827 0.60372478 42
37.750084 8.4196434 1.3594645 5
37.814598 8.4030657 1.6084577 26
38.308628 8.186842 1.6400239 11
38.267445 8.2136755 1.7011214 4
38.340408 8.2283602 1.7614475 1
37.975639 8.4066563 1.7389134 2
37.486324 8.6411867 0.74658692 82
37.47567 8.6702662 0.60015512 33
37.686836 8.5839033 1.2282339 34
37.653576 8.653945 1.1936907 9
37.64476 8.6688414 1.1617032 17
38.142918 8.3401184 1.7094057 1
37.5816 8.6850634 0.81725365 19
37.616753 8.7310257 0.99149674 21
38.410618 8.2409744 1.7212139 4
37.668949 8.8143969 0.64601821 4
