# .PCD v0.7 - Point Cloud Data file format
VERSION 0.7
FIELDS x y z intensity
SIZE 4 4 4 4
TYPE F F F F
COUNT 1 1 1 1
WIDTH 182
HEIGHT 1
VIEWPOINT 0 0 0 1 0 0 0
POINTS 182
DATA ascii
37.236027 7.8986301 0.61370862 47
37.24477 7.9500823 0.59002447 35
37.219009 7.738524 0.63385582 20
37.269131 7.957005 0.80477059 85
37.195183 7.7756886 0.77498245 93
37.188705 7.7714729 0.81084758 91
37.13179 7.6647334 0.72180212 45
37.34824 7.9677005 0.86042529 26
37.201313 7.5775862 0.6025061 10
37.244148 7.8080721 0.94158977 91
37.343204 8.0030451 0.95841587 37
37.288113 7.8326793 1.0300146 32
37.445232 7.9662375 1.1327931 19
37.158047 7.5213399 1.0611881 110
37.036255 7.3662829 0.8471325 75
37.291714 7.69981 1.2294235 45
37.144093 7.4628768 1.0987453 117
37.508617 7.9233861 1.2439694 17
37.30965 7.6765108 1.2674466 30
37.011539 7.229919 0.60742569 9
37.278866 7.6302137 1.2689122 87
37.292179 7.6064024 1.2730029 89
37.144958 7.3850822 1.1182215 112
37.46582 7.9244165 1.3161393 11
37.028828 7.2267423 0.95855528 121
37.503639 7.9522848 1.3482387 7
37.183777 7.3503823 1.1964265 108
37.290798 7.518527 1.342831 47
37.61853 7.8432336 1.3517703 4
37.014797 7.1692739 0.9526965 125
37.598671 7.8682895 1.3762541 4
37.205116 7.2489829 1.2511978 112
36.956032 6.9939299 0.80514508 116
36.9478 6.9702892 0.76421517 123
37.04586 7.0668483 1.1434633 84
37.52597 7.4866939 1.5908597 38
37.294647 7.2270594 1.484457 86
37.055279 6.9688315 1.1764923 41
37.285397 7.0460124 1.3540113 1
37.368824 7.2491288 1.5360714 43
37.171829 6.9849539 1.3463285 0
36.880135 6.7783451 0.5758037 83
36.882179 6.7605195 0.65925449 98
37.752125 7.516408 1.6212227 30
37.825886 7.7580776 1.6781207 6
36.94138 6.7892747 1.0858041 95
37.878998 7.5553589 1.6185021 23
37.694965 7.3870492 1.6628077 39
37.022873 6.8149428 1.2284933 23
37.927502 7.6956763 1.6948065 5
36.930569 6.6991963 1.0899045 93
37.71862 7.2376027 1.6576973 22
37.434856 7.0764532 1.6452856 28
36.995605 6.7313085 1.2326697 26
37.77372 7.1328006 1.6240872 20
36.899117 6.6152511 1.0579637 99
38.06921 7.5471683 1.6867142 3
38.119976 7.4552975 1.6406229 10
37.782246 7.2048907 1.7510942 14
37.879128 6.983644 1.6027582 5
36.831749 6.507205 1.0326558 103
37.229561 6.7771163 1.6163676 30
36.867146 6.4892454 1.1094512 87
37.293701 6.7936211 1.6489804 29
36.794342 6.4225178 0.87720412 112
36.813938 6.43082 0.99497402 109
37.243946 6.6886873 1.6448655 24
37.35783 6.7475047 1.7238281 7
37.113346 6.4895163 1.4730195 21
38.22224 7.0496373 1.550337 9
37.159241 6.5218434 1.5597986 26
37.146919 6.4997582 1.5529971 27
37.80328 6.6894403 1.6257116 2
38.279301 7.1442981 1.6126407 21
36.740486 6.243607 0.67672831 104
37.167789 6.4923787 1.6169021 33
37.010242 6.3013539 1.2907268 1
36.757492 6.2455325 0.98340791 112
38.248974 7.0073915 1.575984 13
36.74828 6.2314143 0.9756791 109
38.356743 7.2640724 1.7230114 3
38.446587 7.3982544 1.7410358 1
38.083965 6.6926999 1.5925684 3
36.733261 6.174541 0.88634175 111
37.046387 6.2596731 1.4606984 14
37.038872 6.2459931 1.4959341 23
36.791504 6.0930309 1.1389586 38
37.015789 6.2173123 1.510645 23
36.677021 6.0068278 0.85173011 108
37.182571 6.3001122 1.8235271 7
37.278915 6.2730784 1.8049141 7
37.308895 6.1906571 1.6731541 30
36.668919 5.9573674 0.92380464 105
36.660233 5.9214625 0.76945788 106
38.085289 6.4969559 1.6528736 4
36.671684 5.9081578 0.95685416 116
37.005642 5.9717703 1.5457097 31
36.905598 5.9336872 1.4659376 17
37.116104 5.8286896 1.2883143 45
37.598511 6.2916026 1.9247096 4
37.585724 6.2502275 1.9544802 2
37.513805 6.0785713 1.7286495 45
37.567791 6.1344442 1.8357201 29
37.491871 6.0359917 1.6946738 33
36.606762 5.769311 0.72356707 109
36.95118 5.7773657 1.2122582 32
37.70314 5.8833594 0.95826924 13
36.599983 5.7364154 0.75578237 115
38.230499 6.4943361 1.7730932 1
37.687454 6.0775456 1.7370006 28
36.588589 5.6719546 0.64906043 103
37.848774 6.0252228 1.7916853 19
36.582325 5.6793408 0.87698406 104
37.466106 5.8120942 1.6508136 29
36.88261 5.6683884 1.398163 32
37.850853 5.9399395 1.6042018 10
36.549324 5.5711207 0.54393643 91
36.614876 5.5903893 1.2263608 53
37.414497 5.7446733 1.6704316 20
37.54174 5.7434397 1.6278642 38
36.531143 5.5292606 0.60097355 95
38.053066 5.9878449 1.6974299 15
37.939182 5.8657937 1.6079904 13
37.479805 5.642149 1.5731305 45
36.632656 5.4995737 1.1692342 37
37.402893 5.5664778 1.4454585 10
37.525578 5.5893383 1.4802397 14
37.985569 5.7779517 1.6735904 10
36.510857 5.405817 0.83130747 103
36.581436 5.4323993 1.0099164 88
36.559479 5.4670606 1.1919359 45
36.739487 5.38026 1.3735003 14
37.636337 5.5000153 1.5466012 32
37.709053 5.4542446 1.1085323 1
36.546947 5.253861 1.0514287 110
37.930794 5.5802259 1.6286845 19
37.95665 5.5008602 1.6085691 12
36.542744 5.2366118 1.0476071 87
36.479614 5.264822 0.81148851 97
36.58881 5.1404724 1.2446958 5
36.41951 5.1292281 0.79604316 76
36.489182 5.1169987 0.57020986 14
36.420498 4.9998093 0.95267087 116
36.429764 4.993608 0.93379164 119
36.490311 4.9820375 1.0432012 93
38.065475 5.321701 1.6084763 1
38.015587 5.2781806 1.3678408 3
38.053623 5.2413597 1.5093375 3
36.333427 4.8526573 0.76457167 36
36.354469 4.8206515 0.85048479 101
36.772243 4.8548002 1.2348601 10
36.993343 4.7960205 1.2202467 9
36.328026 4.7566876 0.81178564 86
36.33754 4.7532592 0.84449363 114
36.909286 4.6466756 1.1378608 34
36.919167 4.6083488 1.1275498 49
36.296162 4.6774163 0.6341331 27
36.278603 4.580585 0.7269237 121
38.086323 5.0130253 1.2807195 6
36.931065 4.5482788 1.1087466 46
36.338367 4.5150867 0.71118337 150
38.018276 4.7290325 1.2342923 2
36.253204 4.5256391 0.67645276 107
36.654488 4.3956857 1.0591865 53
36.284428 4.3203607 0.6722185 120
36.868401 4.3350654 1.0919645 53
37.823219 4.4291768 1.2233841 2
36.717945 4.2793336 1.0504308 54
36.335735 4.2748389 0.58294344 31
36.522114 4.1619196 0.93687642 65
36.491684 4.0763335 0.55012518 63
37.775677 4.3476529 1.2131926 2
36.88945 4.0681539 1.0364658 52
36.723034 4.0327024 0.92129779 41
37.722927 4.1478891 1.1781191 3
36.576408 3.9522262 0.74680084 71
37.718109 4.1018491 1.193469 1
37.576321 4.1047354 1.1064649 14
37.1451 3.8245533 0.90480924 28
37.306778 3.8568771 1.0191977 30
37.023495 3.8182828 0.69687891 32
37.600979 3.8624525 1.1354799 1
