# .PCD v0.7 - Point Cloud Data file format
VERSION 0.7
FIELDS x y z intensity
SIZE 4 4 4 4
TYPE F F F F
COUNT 1 1 1 1
WIDTH 97
HEIGHT 1
VIEWPOINT 0 0 0 1 0 0 0
POINTS 97
DATA ascii
36.089581 3.8684089 1.0079571 82
36.115601 3.9240346 0.87318993 84
36.205276 4.0136452 0.79363662 33
35.979561 3.7477207 0.74905205 74
35.943611 3.5967274 0.98188591 108
36.051792 3.6012371 1.1654423 107
36.281433 3.8304508 1.3108466 13
36.07938 3.5726876 1.2547867 94
35.888016 3.4189603 1.0072992 103
35.936878 3.5023806 0.63562685 10
36.227528 3.5772252 1.4847484 37
35.947311 3.3215237 1.1679235 116
35.813164 3.3246784 0.95382869 114
36.342434 3.5910275 1.525822 38
35.765949 3.2441757 0.83296674 101
36.072872 3.3022714 1.4630593 92
36.751163 3.8910027 1.3897278 0
36.190144 3.30866 1.586324 40
35.808826 3.2521632 0.54873371 9
35.781509 3.0731802 1.0929383 100
35.710026 3.0582204 0.92164803 104
36.263943 3.1713352 1.5959125 40
35.983994 3.0353744 1.4240558 2
36.699261 3.4469953 1.5855379 25
35.692673 3.0775523 0.64162248 99
36.108978 3.0347466 1.6260364 20
36.011787 2.9180562 1.5435907 27
35.646141 2.8316817 1.0026624 107
35.599686 2.789736 0.89654815 103
35.87257 2.6758032 1.4501916 16
36.01083 2.764518 1.6773728 10
37.032219 3.0776467 1.6816765 18
35.51656 2.590786 0.906726 108
37.245308 3.3631063 1.6848288 1
35.480736 2.5209389 0.87886941 100
36.908138 2.7997794 1.656172 2
35.655029 2.4906948 1.4115931 1
35.919498 2.4927993 1.7290107 4
37.113762 2.8278873 1.7156976 0
35.691399 2.4354522 1.3687766 0
36.732613 2.5221052 1.6534262 2
35.421432 2.3576806 0.79546785 103
35.669067 2.2325425 1.3517436 0
35.365173 2.2548411 0.86440277 108
35.511559 2.1976876 1.2828346 0
36.897282 2.5779061 1.6405565 3
36.123413 2.2963388 1.7447236 6
36.122086 2.2420847 1.6890105 28
36.208183 2.2217162 1.7660285 35
35.32132 2.1265314 0.68341011 104
36.326439 2.0124114 1.0776125 2
35.985279 2.0650795 1.6415788 12
35.405136 1.9711937 1.1713287 16
35.262627 1.9928006 0.85061103 100
36.420177 1.9954842 1.6239663 10
36.555519 1.9809959 1.60326 9
35.741554 1.8281434 1.5682002 42
35.223759 1.8972317 0.56653011 86
35.163414 1.7283515 0.83908647 104
35.395248 1.6983536 1.3484789 43
35.106892 1.7337381 1.1204889 86
36.408802 1.7058613 1.6032758 36
35.583233 1.6033444 1.4671419 6
36.477516 1.730554 1.6407653 14
35.114048 1.5186664 0.96257079 103
35.259052 1.4326859 1.352843 1
35.060982 1.4659582 0.83353204 91
36.605995 1.4953074 1.6447229 6
36.567753 1.4706384 1.6499203 3
36.617859 1.4476534 1.4924306 4
34.998611 1.3006184 0.84502816 91
34.93895 1.2004709 0.83935696 89
36.643269 1.2778364 1.4696672 4
36.677368 1.1795545 1.4342749 6
34.889206 1.085335 0.72069973 33
35.129639 0.94952279 1.1394658 31
35.432163 0.91606027 1.2221006 6
36.586647 1.0586749 1.3202151 6
34.856583 0.93554848 0.83480155 97
36.548077 0.84314233 1.161863 4
34.800892 0.87439221 0.58769238 7
34.970074 0.73818058 1.0302644 79
36.236446 0.62490457 1.0945969 36
35.673012 0.65930748 1.1080927 41
34.825161 0.67711985 0.81579494 150
34.827084 0.53020662 0.91047758 150
35.764824 0.41167432 1.0825403 38
35.702976 0.39560911 1.0710351 46
34.840408 0.41893911 0.78457302 67
34.802174 0.3305048 0.74625099 73
35.410645 0.20533726 1.0303651 49
34.986446 0.16070865 0.70881873 80
34.908142 0.13210358 0.53123623 71
35.768913 0.1303809 1.0277003 39
35.228439 0.0073958999 0.91654879 32
35.439991 -0.18989466 0.65943289 55
35.823868 -0.13879153 0.99143076 2
