# .PCD v0.7 - Point Cloud Data file format
VERSION 0.7
FIELDS x y z intensity
SIZE 4 4 4 4
TYPE F F F F
COUNT 1 1 1 1
WIDTH 101
HEIGHT 1
VIEWPOINT 0 0 0 1 0 0 0
POINTS 101
DATA ascii
35.661858 2.8240891 0.98512053 88
35.590916 2.6671431 0.98646104 95
35.820526 2.904511 1.0654004 24
35.484711 2.5529573 0.9715538 105
35.71085 2.6580701 1.3294587 6
35.964291 2.9470048 1.2421689 12
35.413292 2.4370379 0.8855505 91
35.7691 2.5167754 1.4352952 30
35.771492 2.5336666 1.4602544 29
35.609123 2.3849339 1.3695937 68
35.327061 2.2846148 0.95387882 111
35.57317 2.2923756 1.3390783 93
36.260002 2.8323989 1.3733736 0
35.599991 2.2649355 1.446206 87
35.266598 2.2158825 0.77330923 82
35.523197 2.1156206 1.4086424 25
35.362011 2.069294 1.2468272 20
35.196507 2.0248976 0.9341532 97
35.506184 2.0043945 1.4117156 2
35.159706 2.0008967 0.64436406 94
35.984592 2.1643486 1.7090104 24
35.718246 1.9408908 1.6291257 17
35.459614 1.850791 1.4438479 11
35.180805 1.8529513 1.1414692 62
36.452705 2.3956196 1.7060395 3
36.292812 2.2705467 1.8035413 4
36.49894 2.4097884 1.7051028 1
35.048889 1.7585937 0.92415833 100
35.398663 1.7173498 1.5652291 28
36.447243 2.0206206 1.6874412 7
36.57774 2.1234739 1.6506926 4
35.024864 1.6421678 1.024251 97
36.622284 2.1356568 1.6615977 5
36.447315 1.8564225 1.6124414 15
35.289684 1.580339 1.5183182 21
35.242447 1.5096874 1.4459627 13
36.478607 1.7578789 1.6130209 3
36.53899 1.8627367 1.703117 17
35.181194 1.4724946 1.400535 1
34.901577 1.4942777 0.91715562 97
36.321018 1.591684 1.5679033 3
34.874775 1.4349654 0.90441084 96
35.147171 1.3073207 1.3044839 0
36.497715 1.8322436 1.8797805 3
36.330486 1.4874228 1.6011579 2
36.202637 1.4095495 1.623389 2
35.158783 1.3164546 1.5855838 25
36.532475 1.6290486 1.6939739 1
35.46616 1.2951803 1.760874 4
35.123489 1.2143115 1.3679376 0
35.667274 1.1989108 1.7656027 34
34.764709 1.2343532 0.91355723 100
34.764462 1.2329462 0.76685286 93
34.875156 1.1032314 1.2216426 6
35.369144 1.1771668 1.7208771 16
35.428593 1.0410018 1.6795355 17
35.103367 1.0541781 1.6299802 21
35.869537 0.9439863 1.6484475 17
34.660515 1.0376705 0.62753004 93
35.098492 0.97566837 1.6335092 18
34.901806 0.95024526 1.393819 17
34.641483 0.976776 0.90739042 101
34.69099 0.90418237 1.1054221 41
35.296455 0.80253041 1.593734 32
35.266579 0.78709608 1.6390029 24
34.956512 0.78427792 1.5030335 36
35.814007 0.67786992 1.6205724 25
34.519947 0.71634471 0.90495604 98
34.522552 0.71423864 0.98494309 88
34.77158 0.68866229 1.3936732 34
35.577976 0.54950774 1.5323217 33
35.34985 0.54443568 1.5103838 28
34.776264 0.59362113 1.3815182 34
36.305695 0.78425384 1.8769827 6
34.41642 0.52689677 0.84089822 83
34.391994 0.46018058 0.91034442 86
34.556911 0.40740958 1.2732632 8
35.895958 0.4197019 1.5524982 14
35.915115 0.29393274 1.4574382 3
34.288891 0.34354928 0.70031488 39
34.412273 0.22490887 1.1371447 24
34.269234 0.20209017 0.91750163 102
35.999489 0.15558141 1.479906 2
34.998562 -0.078561686 1.2015064 1
34.262936 0.048485253 1.0011252 91
35.560806 -0.1882192 1.1140854 0
34.1707 -0.050056309 0.92132926 117
35.146519 -0.33686176 1.1213388 34
34.109402 -0.1259528 0.86720717 107
34.097725 -0.30603316 0.91750222 150
35.16164 -0.42975813 1.1384695 25
34.004261 -0.29701373 0.71024406 150
35.190022 -0.60031366 1.0799369 45
34.958729 -0.6693747 1.0897976 34
34.181522 -0.5601508 0.86025232 69
35.192883 -0.85896802 1.0583946 28
34.300533 -0.81473744 0.79483509 35
34.76844 -0.90357029 1.0336099 44
34.678596 -1.0792874 0.63702649 100
34.745152 -1.1382425 0.91619164 31
35.039486 -1.1174797 1.0942365 0
