# .PCD v0.7 - Point Cloud Data file format
VERSION 0.7
FIELDS x y z intensity
SIZE 4 4 4 4
TYPE F F F F
COUNT 1 1 1 1
WIDTH 102
HEIGHT 1
VIEWPOINT 0 0 0 1 0 0 0
POINTS 102
DATA ascii
35.454063 2.5005169 0.58729905 32
35.526287 2.5642545 0.61592007 33
35.431049 2.29618 0.62780023 17
35.369007 2.2487309 0.52491069 10
35.486271 2.4184091 0.90177047 81
35.303696 2.22418 0.77292228 45
35.200207 2.0364428 0.61089176 7
35.598125 2.4799654 1.1175137 65
35.397358 2.2175593 1.0948571 103
35.134045 2.0100813 0.71753579 22
35.702454 2.5333652 1.1606603 32
35.641075 2.4143155 1.2035396 36
35.47065 2.2513182 1.2188129 87
35.410286 2.1509991 1.1753097 98
35.408184 2.0947471 1.2212651 108
35.199909 1.9559083 1.0733869 107
35.585461 2.2883565 1.3577068 2
35.199295 1.9041528 1.0971695 98
35.21854 1.8979771 1.1315253 98
35.337299 1.9782996 1.2469432 100
35.005028 1.7429928 0.75166941 93
35.034866 1.721162 0.95512468 94
35.042423 1.6981564 1.0455425 96
35.030472 1.6451095 1.0816132 92
35.166771 1.7076572 1.2940491 5
34.913467 1.543353 0.7955364 87
35.788548 2.003834 1.5854758 31
35.821697 2.2473407 1.6853412 2
34.860352 1.4747784 0.79404593 80
35.916954 2.2352717 1.6709869 4
35.457512 1.7406043 1.5813758 39
34.86367 1.437831 1.0274367 98
36.08725 1.9816436 1.59668 16
34.805191 1.3730448 0.6323911 85
34.867645 1.3989339 1.0208516 91
35.255985 1.4906126 1.5318254 24
36.075584 1.7164142 1.5887367 19
34.694225 1.2089056 0.85025966 80
34.699001 1.1799624 1.0086989 97
35.084656 1.2475485 1.4701345 14
34.696339 1.1568568 0.96017385 91
36.27932 1.4587255 1.5119597 8
34.807819 1.004936 1.4411813 2
34.905361 0.91264719 1.3697084 0
36.102337 1.1830842 1.5660075 2
36.299221 1.3787023 1.7179669 16
34.531677 0.94281983 0.90761405 83
34.536678 0.92101765 0.89324218 87
34.561867 0.92696118 0.98579258 99
36.153053 1.1322877 1.6394175 2
35.539574 0.87554067 1.714201 5
35.446194 0.88969004 1.7817829 9
34.404793 0.68648374 0.81178725 88
34.40852 0.68274784 0.9545669 85
34.414059 0.67190635 0.97294426 103
34.680714 0.65087342 1.4504496 20
35.290932 0.6375761 1.6674612 29
35.451675 0.63123614 1.7847483 23
34.263508 0.45679295 0.73167819 88
35.012711 0.40231329 1.6284062 34
34.251915 0.53273994 1.3794991 1
34.619953 0.39045116 1.4790361 10
34.284019 0.4241989 1.0059795 74
34.274467 0.42098117 0.95891088 75
34.269184 0.31059197 1.2412826 36
35.064774 0.18023306 1.4728178 22
34.122162 0.22826435 0.64846331 80
35.863602 0.37747121 1.6565926 22
34.1521 0.1701185 0.94554436 84
34.173405 0.16907778 1.056805 63
34.184414 0.084737822 1.1328921 71
36.012585 0.27158496 1.813791 4
35.752674 0.1561047 1.0970197 1
35.82914 0.11341404 1.6804261 1
34.098232 -0.084145345 1.0983377 39
34.009171 -0.082106404 0.94171274 100
34.033844 -0.13364784 1.0488178 82
34.133648 -0.33327109 1.1026236 47
33.886196 -0.33238295 0.93469423 108
34.456909 -0.48794502 1.2543893 3
33.864666 -0.35254523 0.96650988 108
35.707882 -0.18584812 1.6283145 0
35.467693 -0.36813056 1.2300467 2
34.226292 -0.5861361 1.0899472 43
33.824471 -0.58030695 0.91162962 64
34.435612 -0.70278269 1.1106174 42
33.739937 -0.56894737 0.86530626 96
35.574028 -0.62994778 1.2160161 2
34.349728 -0.83947235 1.0723313 36
33.848961 -0.83040828 0.85779798 61
33.650784 -0.7811107 0.74956596 114
34.148682 -0.91298777 1.0630733 46
35.191505 -1.058516 1.1951029 3
34.485374 -1.0937911 1.0515409 39
33.714657 -0.9950555 0.57007778 39
33.932552 -1.0837655 0.78650588 55
33.987717 -1.1209433 0.96603221 55
34.963879 -1.2681065 1.1144782 12
34.020866 -1.3304712 0.79553545 23
34.241295 -1.3411213 0.63575894 150
34.664909 -1.3481649 1.0192832 31
34.673706 -1.4663366 1.0582767 17
