# .PCD v0.7 - Point Cloud Data file format
VERSION 0.7
FIELDS x y z intensity
SIZE 4 4 4 4
TYPE F F F F
COUNT 1 1 1 1
WIDTH 79
HEIGHT 1
VIEWPOINT 0 0 0 1 0 0 0
POINTS 79
DATA ascii
34.208462 -1.9073036 0.63052344 17
34.032845 -1.9126793 0.54830641 150
33.923538 -1.6927308 0.89591426 40
34.297176 -1.6901456 1.0277832 38
34.001732 -1.487185 1.0211884 36
33.638138 -1.6502717 0.68736511 110
34.172283 -1.4316119 1.0633808 37
34.271683 -1.2782594 1.0746093 46
34.072411 -1.1797947 1.0936201 46
33.481262 -1.3583964 0.71719611 101
33.406109 -1.394683 0.76754171 93
34.468723 -1.0657012 1.1552622 23
33.473568 -1.1484543 0.86997372 36
33.98101 -0.92587012 1.1257349 37
33.327854 -1.1452748 0.79218179 74
33.534649 -0.93789709 0.99237603 79
33.345432 -0.89534754 0.78351849 127
33.700325 -0.72217596 1.0749544 78
33.853371 -0.67177469 1.174549 17
33.541897 -0.59245408 0.63298678 7
33.43269 -0.64706618 0.75359285 30
35.338123 -0.95806038 1.2309903 22
33.852116 -0.50397062 1.1600792 28
35.17775 -0.69732326 1.2882144 1
33.77808 -0.42195547 1.206679 8
33.640491 -0.39343223 0.67967236 25
33.670361 -0.37017751 0.72308248 30
33.97377 -0.28250265 1.2519649 3
33.924156 -0.16712342 1.1633239 42
33.825233 -0.14670281 0.80108976 81
33.767136 -0.13978381 0.64245087 76
34.131191 -0.054340869 1.3323094 58
34.738037 -0.18323056 1.4545548 20
34.99929 -0.17958491 1.5392499 39
33.970364 0.082458496 0.8804884 89
33.855816 0.083154738 1.2019008 74
34.522255 0.067904569 1.5429837 41
34.314526 0.17399476 1.3976161 24
33.950924 0.11812984 0.58712101 80
34.12664 0.31385031 0.95176411 92
34.181358 0.34675765 1.1021996 38
35.063015 0.04759717 1.6523545 14
34.472656 0.31913266 1.5766433 35
34.095657 0.37742707 0.55126351 68
34.496338 0.40517232 1.4601575 17
35.451702 0.052802969 1.8112503 3
34.29335 0.54822403 1.0171478 90
34.310719 0.6047436 1.0755526 76
35.118187 0.27876604 1.7655424 26
35.091541 0.30261421 1.9467124 9
34.247948 0.63561893 0.5144909 35
34.584206 0.58135426 1.5597302 28
34.467682 0.78795552 1.0763055 76
34.678772 0.64070344 1.5214155 28
34.464893 0.87133408 1.0463865 90
35.450848 0.51913404 1.781266 4
34.777763 0.84838033 1.5182024 31
34.65313 1.0318905 1.1293665 62
34.862942 0.88300914 1.5800161 36
34.628044 1.136126 1.0169779 92
34.948891 1.1152383 1.4887358 22
35.063862 1.1290666 1.6289982 25
35.87093 0.59487569 1.7124071 1
34.848106 1.2775689 1.1757703 35
35.960049 0.77279299 1.7382196 0
34.797558 1.4024972 0.98897678 93
35.07349 1.3794801 1.4787089 74
36.083614 0.87113178 1.6677624 2
35.058838 1.5328379 1.2147653 93
34.961292 1.6711 0.96967357 95
35.437214 1.3895301 1.6171459 31
36.053303 1.0168529 1.8308587 4
35.965874 1.1320173 1.7365909 3
35.25618 1.6521872 1.4543748 33
35.216095 1.7889771 1.2708046 81
35.158752 1.9447093 0.94146419 81
35.72971 1.6515555 1.6325856 18
36.192295 1.4085531 1.6955906 1
35.460068 2.052717 1.2906084 10
