# .PCD v0.7 - Point Cloud Data file format
VERSION 0.7
FIELDS x y z intensity
SIZE 4 4 4 4
TYPE F F F F
COUNT 1 1 1 1
WIDTH 61
HEIGHT 1
VIEWPOINT 0 0 0 1 0 0 0
POINTS 61
DATA ascii
34.249119 0.65967882 0.72496617 42
34.361492 0.65303588 0.87036228 36
34.082809 0.45479524 0.7960152 47
33.997124 0.40072781 0.78400636 33
34.46159 0.62859184 1.2259526 32
33.857071 0.26047856 0.70052963 16
34.172852 0.32797888 1.2486356 72
34.189148 0.37090629 1.2892843 76
34.470528 0.52255243 1.3190978 4
33.763218 0.14612438 0.83927941 86
33.94812 0.14114785 1.1517537 84
33.710342 0.072339877 0.57602388 12
34.012123 0.11505742 1.3214294 87
33.700413 -0.044102695 1.0618905 79
34.535671 0.20678237 1.6050155 17
33.551228 -0.10635474 0.89086705 72
34.156223 0.020038826 1.5579076 28
34.707848 0.34028605 1.683279 1
33.922043 -0.16262591 1.4572394 14
34.78083 0.084391303 1.6283178 8
33.478271 -0.22497766 0.96012026 76
34.784218 -0.17539911 1.5998827 24
33.328415 -0.3515203 0.95242423 75
33.306347 -0.3986671 0.84201068 72
34.848225 -0.4329277 1.5576308 14
33.318558 -0.50911748 1.3085717 1
33.138325 -0.57322752 0.71772659 73
33.424374 -0.63386792 1.4655272 11
33.120354 -0.59931719 1.0111848 80
34.619373 -0.68655568 1.6167442 2
33.156891 -0.67895842 1.1804959 23
32.966148 -0.74164528 0.59547734 68
33.988148 -0.92953879 1.8192163 9
32.957123 -0.84182876 1.0674573 67
32.95388 -0.84315884 1.0579872 71
33.255001 -0.8803668 1.5110518 31
33.919991 -1.1820483 1.8321457 25
33.208 -1.1266687 1.517327 40
32.746571 -1.0021257 0.95617223 74
33.413704 -1.3846965 1.4359479 15
32.677406 -1.0582811 0.58736694 69
32.64143 -1.0802811 1.1656229 75
32.615906 -1.161126 0.81467295 77
34.245857 -1.449756 1.7142889 16
32.622135 -1.3260356 1.1646458 60
32.442543 -1.2959269 0.67057699 50
32.451569 -1.3130149 0.68498474 66
32.470455 -1.5626605 1.2178148 6
32.238937 -1.5311406 0.74558276 26
32.55061 -1.8078008 1.1877126 10
33.797882 -2.1557026 1.2981778 4
32.663727 -2.0602686 1.1470166 27
32.05489 -1.7627383 0.8174926 81
32.789566 -2.3128798 1.106095 43
31.970573 -1.9984519 0.8530286 53
31.961884 -2.2381053 0.86159962 33
32.866776 -2.5643547 1.0871831 42
31.993244 -2.4813113 0.85767186 55
32.157818 -2.7337859 0.80661863 30
32.97823 -2.8178079 1.059341 37
32.43745 -2.999876 0.71220887 29
