# .PCD v0.7 - Point Cloud Data file format
VERSION 0.7
FIELDS x y z intensity
SIZE 4 4 4 4
TYPE F F F F
COUNT 1 1 1 1
WIDTH 74
HEIGHT 1
VIEWPOINT 0 0 0 1 0 0 0
POINTS 74
DATA ascii
30.96711 -2.3154187 0.56137031 52
30.943302 -2.302871 0.73080736 61
31.137873 -2.1829221 0.68490255 61
31.21624 -2.0927906 0.63042414 62
30.69927 -2.5125484 0.82465631 67
31.314444 -2.0499308 0.80277532 62
31.105825 -2.3267965 1.2053716 12
31.468872 -1.8732942 0.54146761 33
31.298668 -2.1100643 1.1403588 53
30.462152 -2.7175725 0.91664827 63
31.492964 -1.9133717 0.91906935 62
31.538498 -1.8896327 1.0599115 75
30.734367 -2.7512984 1.3408881 23
31.722071 -1.6905942 0.56333011 29
30.892775 -3.0039213 1.2771012 23
30.263187 -2.9261322 0.99765444 65
31.712378 -1.7724539 1.0215157 68
31.776464 -1.6707965 0.98306823 77
31.359352 -2.3620532 1.6417542 27
31.34165 -2.5933039 1.6434942 21
31.656746 -2.1538022 1.5401555 30
31.901115 -1.540499 0.67728543 14
31.278143 -2.8209586 1.6633914 11
31.648947 -3.328531 0.98003238 5
30.093519 -3.1350791 1.0689293 69
31.952682 -1.6297445 1.1164081 73
31.886354 -1.9317993 1.4665025 9
31.377945 -3.069051 1.6262705 25
32.008972 -1.4483237 0.91278553 68
30.051399 -3.3571639 1.0904095 62
32.116024 -1.3902687 0.77875185 31
31.512133 -3.3215404 1.5791602 40
32.071606 -1.7059649 1.4126915 65
31.725172 -2.8774974 1.8715316 26
32.22673 -1.4851891 1.1962491 79
32.270947 -1.482183 1.3583142 33
29.699514 -3.3128331 0.70655882 59
30.061453 -3.5846584 1.0962192 60
32.326843 -1.2245132 0.81394404 48
32.360558 -1.2351304 0.86828166 55
31.880541 -3.1087239 1.6863492 16
31.703348 -3.3025272 1.6178242 27
30.114685 -3.8173711 1.0845739 53
32.485386 -1.3370228 1.2811152 13
29.590141 -3.52231 0.761024 84
29.570864 -3.7423475 0.77856958 84
32.570141 -1.2577555 1.2695223 15
31.695139 -2.8807645 2.0437901 2
31.625311 -3.5017982 1.5109912 27
31.622751 -3.572526 1.5444046 18
31.53422 -3.6989799 1.4085938 2
32.531242 -2.7457962 1.7047395 1
31.539461 -3.795223 1.5859686 0
31.497038 -3.900784 1.2817897 4
31.299568 -3.9893782 1.147241 1
30.17358 -4.050941 1.0735253 49
32.545788 -2.7318153 1.7359341 1
32.879833 -2.0296035 1.6426309 11
32.879612 -1.7825807 1.658865 4
32.843449 -2.272047 1.6441993 12
31.506065 -4.1069741 1.1336317 16
32.121662 -3.4074547 1.8959821 0
31.204565 -4.2079678 1.2001028 3
31.081795 -4.2476945 1.1540636 13
29.608116 -3.9696827 0.77519184 65
30.261389 -4.2911773 1.0539384 43
29.717434 -4.2098904 0.74480772 46
30.853939 -4.4099813 1.0974528 19
32.783535 -2.510838 1.6560302 9
32.86673 -2.5598221 1.7081329 2
29.895521 -4.4626522 0.68724233 57
30.409267 -4.5390215 1.0145699 38
30.581076 -4.5643492 1.0577161 25
30.492918 -4.7458391 0.9399215 1
