# .PCD v0.7 - Point Cloud Data file format
VERSION 0.7
FIELDS x y z intensity
SIZE 4 4 4 4
TYPE F F F F
COUNT 1 1 1 1
WIDTH 73
HEIGHT 1
VIEWPOINT 0 0 0 1 0 0 0
POINTS 73
DATA ascii
31.701521 -1.7653644 1.011564 49
31.629902 -1.8834345 1.108523 69
31.885632 -1.7144836 1.1797528 0
31.433159 -1.9872134 1.0839679 79
31.611071 -1.7862036 0.65097427 28
31.362253 -2.0471544 1.0413667 76
31.546049 -2.1455057 1.4299471 28
31.358217 -1.9748756 0.5761798 5
31.202364 -2.2070005 1.1475492 82
31.114824 -2.203805 0.96881908 79
31.310013 -2.3021297 1.3482175 54
31.976805 -2.1158228 1.6218134 12
31.047235 -2.1894941 0.6751309 49
31.739553 -2.4163227 1.6417503 25
32.045521 -2.3561845 1.632181 12
32.125935 -2.2733045 1.6719558 3
30.916239 -2.3633001 0.87320155 66
30.979582 -2.4258828 1.2100583 20
31.014099 -2.4492838 1.2902762 3
31.305191 -2.5529513 1.6291667 22
30.81959 -2.4087439 0.7430504 62
32.23579 -2.6040096 1.6005317 15
30.78581 -2.5987434 1.2043475 20
30.721699 -2.5177279 0.77748764 61
31.016499 -2.6939576 1.5640783 21
30.759941 -2.6410923 1.2758256 2
32.212383 -2.8371084 1.6514236 8
30.562088 -2.6202998 0.8259024 62
30.768822 -2.8318079 1.4840841 12
30.537424 -2.6694155 0.67491341 62
30.54682 -2.7417412 1.1242237 54
30.688751 -2.8650882 1.287395 1
32.108742 -3.0638757 1.7345792 2
30.703167 -2.984046 1.3308557 0
30.302128 -2.8276086 0.91553497 71
30.314436 -2.8789864 1.0422884 77
30.336796 -2.8160372 0.57963955 55
30.104004 -3.0177498 0.9494648 68
30.078487 -3.0360627 0.99258691 73
30.157204 -3.2734742 1.4727137 55
29.933855 -3.1555493 0.84092516 64
30.219992 -3.5069959 1.4390463 11
29.910456 -3.210135 1.2954522 25
31.127792 -3.8396554 1.0731738 4
29.824759 -3.2389846 1.0856977 52
29.805868 -3.241713 0.56657344 58
29.770283 -3.2885833 0.72956115 64
29.770029 -3.3413033 1.1728379 56
29.728266 -3.4523377 1.1161302 50
29.649027 -3.4736898 1.042063 55
29.595039 -3.4163733 0.62323904 42
29.549004 -3.4374704 0.66660047 25
29.594006 -3.6612289 1.1687803 16
29.442429 -3.5928836 0.94588214 71
29.580656 -3.8803921 1.1703199 18
29.317513 -3.6332099 0.76205742 26
29.24666 -3.7073371 0.8468017 57
29.647125 -4.1123624 1.1439385 27
30.747314 -4.4826999 1.2317322 4
29.122055 -3.831095 0.84295416 96
29.727001 -4.3441944 1.1161146 48
30.738859 -4.7084842 1.2455281 0
29.781162 -4.5754361 1.1001766 48
29.089943 -3.825197 0.73135388 22
29.026722 -4.0384727 0.88333482 25
28.972261 -3.9443121 0.59744692 23
29.007929 -4.2542768 0.89555281 66
29.860651 -4.8086362 1.0776427 42
29.018841 -4.473845 0.89592302 53
29.08847 -4.7011571 0.87381315 25
29.950514 -5.0414186 1.0544593 29
29.212894 -4.9373355 0.83337158 22
29.497639 -5.2024903 0.72454923 16
