# .PCD v0.7 - Point Cloud Data file format
VERSION 0.7
FIELDS x y z intensity
SIZE 4 4 4 4
TYPE F F F F
COUNT 1 1 1 1
WIDTH 73
HEIGHT 1
VIEWPOINT 0 0 0 1 0 0 0
POINTS 73
DATA ascii
28.385172 -4.94067 0.69411188 77
28.372301 -5.0024548 0.63220614 60
28.317257 -4.7819943 0.65377122 70
28.417292 -4.8164864 0.85862744 123
28.331949 -4.6443176 0.64071429 50
28.308985 -4.5713596 0.65807664 62
28.569201 -5.2464828 0.55010492 150
28.53006 -4.7026482 0.98876148 66
28.642071 -5.0248127 1.0312893 59
28.608953 -4.8068843 1.0409526 64
28.397085 -4.5179243 0.79139578 71
28.592453 -4.5961757 1.0463762 72
28.734152 -5.2505412 1.0001128 59
28.40237 -4.3759842 0.61844093 84
28.530647 -4.3986197 0.90877688 42
28.742884 -4.6003933 1.0763532 63
28.626764 -4.3902307 1.0344435 58
28.608685 -4.2308102 0.61305124 6
28.879507 -5.487433 0.94689381 46
28.702557 -4.2808337 1.008914 77
28.728664 -4.190793 0.99459058 82
29.017817 -4.5068336 1.1333556 45
28.722666 -4.0979137 0.73742443 16
28.913517 -4.1665025 1.0926855 57
28.887403 -3.9964979 0.93167627 75
28.917774 -3.9731858 0.82725829 55
29.215942 -4.3959093 1.2257025 2
29.240793 -5.768281 0.80475312 1
29.103979 -4.0440955 1.1868712 11
29.103325 -3.8446941 0.92057544 57
29.087593 -3.8104484 0.85700393 60
29.320868 -3.9211016 1.268967 18
29.278603 -3.7095239 1.0175141 47
29.292456 -3.6584702 0.56761807 55
29.310566 -3.6176591 0.77421153 66
29.472982 -3.788754 1.3761427 55
29.317131 -3.5566776 1.1727051 62
29.469683 -3.5145938 0.66392463 63
29.553453 -3.4260819 0.68519276 67
30.047487 -4.0691814 1.412889 14
29.711929 -3.6602254 1.4503225 30
29.706898 -3.4380491 1.1807082 20
29.659475 -3.3704591 0.75176758 61
30.013954 -3.911957 1.5972009 47
29.94105 -3.5279472 1.527019 25
29.833424 -3.2221973 0.84783351 63
29.782162 -3.2310898 0.60603648 62
30.580267 -4.445817 0.83755773 0
30.608406 -4.2991982 1.0079589 5
29.979479 -3.3037817 1.2346387 5
30.32826 -3.7974741 1.6456733 13
30.132109 -3.3868775 1.6207792 29
30.046253 -3.0713079 0.92852372 65
30.248995 -2.9166856 1.0107636 65
30.433943 -3.6513414 1.7751281 10
30.42565 -3.2527795 1.673366 15
30.485004 -2.7598369 1.0801368 70
30.490364 -2.6824784 0.61864698 53
30.715576 -2.8615832 1.4420274 6
30.676073 -2.5145686 0.70515096 14
31.062479 -3.1472569 1.5941979 5
31.345741 -3.5910373 1.5998873 2
31.058065 -3.0694604 1.1404233 0
30.746737 -2.6036077 1.1376246 77
30.953011 -2.7054629 1.5120732 44
30.939924 -2.3494415 0.75885564 29
31.581877 -3.4502189 1.6828972 15
31.009893 -2.4418352 1.1936247 80
31.509182 -3.0168417 1.5912735 26
31.424482 -2.8311391 1.7895929 5
31.298859 -2.5529363 1.5424436 28
31.28433 -2.2772796 1.2466347 27
31.179937 -2.1769638 0.8217873 43
