# .PCD v0.7 - Point Cloud Data file format
VERSION 0.7
FIELDS x y z intensity
SIZE 4 4 4 4
TYPE F F F F
COUNT 1 1 1 1
WIDTH 119
HEIGHT 1
VIEWPOINT 0 0 0 1 0 0 0
POINTS 119
DATA ascii
28.209511 -6.179688 0.83792335 19
28.263521 -6.0537848 0.98357844 48
28.020813 -5.9983001 0.65096009 120
28.471796 -6.0867577 1.0011792 32
27.937534 -6.0184598 0.71136111 114
28.317871 -5.8551707 1.0356789 46
28.421619 -6.3128242 0.52367646 15
28.506094 -5.9571629 1.0485355 42
27.915064 -5.8384371 0.86969852 24
27.98999 -5.7075758 1.0025547 56
27.826172 -5.7969084 0.73081446 44
28.212799 -5.6308842 1.0534327 51
28.219471 -5.5999579 1.0696752 51
28.805405 -5.8695564 1.088518 32
27.735336 -5.6453137 0.68015498 54
27.721672 -5.5757174 0.75158238 63
28.517836 -5.5010328 1.1055418 45
28.138073 -5.4148083 1.0603271 52
27.748543 -5.499639 0.84123665 63
27.824034 -5.360301 0.97274196 66
27.674414 -5.3644867 0.74829805 100
28.002178 -5.2337379 1.0590897 63
28.679167 -5.3740816 1.2014408 10
28.074623 -5.1988358 1.0653099 61
29.1112 -5.7760592 1.1266886 26
27.652786 -5.30685 0.61323231 30
28.261597 -5.1174955 1.106846 54
27.70335 -5.1599531 0.75522757 99
29.237682 -5.7833996 1.1403227 15
27.660305 -5.1597228 0.73441905 98
28.049433 -4.9888406 1.0552554 64
27.825808 -5.0198097 0.86308295 63
29.292078 -5.5830498 1.0900365 1
28.415503 -4.9831429 1.2024667 7
27.75396 -4.96626 0.67195219 81
27.979822 -4.8831129 0.95345974 87
27.913635 -4.8374028 0.54289156 4
28.097191 -4.7876663 1.0170233 73
29.513376 -5.692153 1.1274781 6
27.97443 -4.7912126 0.55296087 5
28.173655 -4.7468004 1.0282788 79
28.114441 -4.698122 0.61479515 3
29.569258 -5.5512114 1.2713087 6
28.361801 -4.607882 1.1045269 61
28.223001 -4.5938377 0.94718277 75
28.258429 -4.5476794 0.70958078 23
29.646944 -5.4113545 1.4477129 2
29.688869 -5.4133554 1.3902875 5
28.578243 -4.4672871 1.1681869 21
28.413294 -4.40797 0.85032791 55
28.446894 -4.3993163 0.78452414 57
28.643942 -4.4219923 1.2679619 55
29.66423 -5.1966887 1.4171674 1
29.497189 -4.9556341 1.4642059 14
28.619514 -4.3009338 1.3070505 24
28.630873 -4.2480774 0.86161357 63
28.625202 -4.2076383 1.2664715 45
28.620911 -4.2185054 0.74990851 63
29.335638 -4.7183704 1.5119543 27
29.319 -4.6134057 1.2991678 7
29.748365 -5.2631617 1.5329872 5
29.468704 -4.8551707 1.5233759 28
29.60767 -4.7639394 0.87327701 6
29.733023 -4.8383965 0.96712106 6
29.84062 -5.1161423 1.6589264 3
29.541079 -4.696969 1.654282 23
29.218451 -4.4855256 1.545104 50
29.169477 -4.42557 1.5184394 30
28.826937 -4.0933781 0.93134487 66
29.135172 -4.2610626 1.5685357 29
29.287617 -4.2678232 1.6239641 19
28.961777 -4.0311332 1.115062 48
29.485914 -4.2302017 1.0979692 1
28.849411 -4.0285721 0.64402646 62
29.250927 -4.0560069 1.5124668 19
29.027863 -3.9332762 1.0007298 70
30.091427 -4.8142743 1.7341371 14
29.846313 -4.567368 1.6908379 19
29.8573 -4.5618777 1.8098382 17
30.178001 -4.8387561 1.849508 2
29.124454 -3.8297591 1.0426797 72
29.488487 -4.1151705 1.6976471 19
29.05698 -3.8320255 0.54657942 50
29.243227 -3.773119 1.0601405 70
29.769159 -4.3872323 1.8768914 47
29.737745 -4.3276038 1.8435777 15
29.388052 -3.855376 1.4478059 1
29.42981 -3.8564141 1.4348553 1
29.340336 -3.6313081 0.95025903 65
29.476593 -3.6120927 1.1117314 65
30.028698 -4.1404114 1.7204092 2
30.658588 -4.3167696 1.6897132 1
29.573488 -3.9479964 1.8168054 2
29.738047 -3.7107849 1.4547981 3
29.57123 -3.4329381 0.8539179 62
29.710829 -3.4466906 1.1630057 52
29.77232 -3.446316 1.29373 1
30.114437 -3.9263115 1.6812997 1
30.230659 -3.7121601 1.6321634 3
29.964638 -3.545624 1.5132433 20
29.978706 -3.2791047 1.1982166 65
30.686865 -3.8774071 1.5349596 6
30.304522 -3.4954042 1.6033393 21
30.182491 -3.3796213 1.5718856 43
29.999069 -3.2432494 1.2066474 76
29.782902 -3.2266555 0.76967603 77
30.355656 -3.2737 1.5865532 24
30.871723 -3.9760883 1.9197367 2
30.906303 -3.7134352 1.6014979 20
30.23082 -3.1045892 1.2415371 76
30.189016 -3.0339143 1.1362876 77
30.100473 -3.0272439 0.64240956 4
30.526396 -3.2161326 1.5831901 31
30.48032 -2.9296508 1.2834669 13
30.55477 -3.064007 1.5148265 41
31.010994 -3.5325217 1.7121369 4
30.404009 -2.8219023 1.0582979 54
30.734476 -3.0363638 1.6472082 7
30.808439 -2.749635 1.2964909 0
