# .PCD v0.7 - Point Cloud Data file format
VERSION 0.7
FIELDS x y z intensity
SIZE 4 4 4 4
TYPE F F F F
COUNT 1 1 1 1
WIDTH 64
HEIGHT 1
VIEWPOINT 0 0 0 1 0 0 0
POINTS 64
DATA ascii
28.927259 -4.625772 0.76392978 23
29.0021 -4.6158304 0.77417141 42
28.831993 -4.4338651 0.96003658 54
28.775291 -4.3670092 0.86095828 27
28.980698 -4.2699823 1.0505183 54
28.674545 -4.1389527 0.89554387 27
29.457445 -4.5722165 1.1443886 6
29.226561 -4.1169796 1.0982392 52
29.502283 -4.4485292 1.0777036 41
29.415504 -4.2176003 1.1034185 48
28.622311 -3.9144595 0.91234952 48
29.367203 -3.9909456 1.1170892 46
29.42342 -3.9523809 1.1657891 20
28.585608 -3.6962202 0.92520982 53
29.84494 -4.4422865 1.1400143 22
29.338371 -3.7683842 1.1236789 35
28.603956 -3.4808128 0.91753364 59
29.293943 -3.5430701 1.1425641 28
29.72283 -3.7952332 1.1901402 0
30.0998 -4.2882009 1.1905322 2
28.66991 -3.2733371 0.89239383 23
29.270161 -3.3225737 1.1540735 29
30.186342 -4.306603 1.3171123 2
28.833233 -3.0665073 0.82735175 68
29.315964 -3.1041503 1.1402029 26
29.499498 -2.8962524 1.0719285 49
30.438465 -3.756361 1.5069017 28
30.790537 -3.9188612 1.0612215 2
30.649466 -3.6945105 0.96065462 5
30.128901 -3.2535102 1.4566705 2
29.484179 -2.8953078 0.55387884 11
29.963495 -2.9363875 1.4041919 1
30.49165 -3.5683873 1.63121 30
30.729937 -3.9138803 1.6207107 14
30.772938 -3.6872575 1.0667796 6
30.691704 -3.6825686 1.6326983 19
30.270948 -3.0682173 1.5392004 49
29.859386 -2.6988361 0.93398696 25
30.75017 -3.5081978 1.065339 1
30.637835 -3.4524527 1.6529293 17
30.800594 -3.4611509 1.056477 0
31.049421 -4.0147376 1.1172994 1
31.022676 -3.9012249 1.7424654 24
30.776274 -3.3988376 1.6643673 21
30.647947 -3.2239113 1.6513019 14
31.028131 -3.7076614 1.8894802 0
30.452288 -2.8846285 1.6032251 25
30.675018 -2.9962335 1.6483601 20
30.781107 -3.2019994 1.8042493 28
30.666988 -2.7646728 1.661756 70
30.442135 -2.5075376 0.70484531 19
30.661373 -2.5263417 1.1492608 27
30.910238 -2.7116072 1.5610517 21
31.199245 -2.5692396 1.471577 5
31.81966 -3.0826094 1.5524162 5
31.106377 -2.3169925 0.98989677 24
31.466314 -2.5381932 1.4828916 11
32.028816 -3.402616 1.8106008 3
31.618559 -2.355701 1.3281506 21
31.830452 -2.6696622 1.8232672 13
32.0592 -2.8941905 1.6032146 26
31.867746 -2.3504281 1.4634874 17
31.647903 -2.1067369 0.79702461 16
32.080795 -2.1381433 1.1734381 31
