# .PCD v0.7 - Point Cloud Data file format
VERSION 0.7
FIELDS x y z intensity
SIZE 4 4 4 4
TYPE F F F F
COUNT 1 1 1 1
WIDTH 71
HEIGHT 1
VIEWPOINT 0 0 0 1 0 0 0
POINTS 71
DATA ascii
33.76194 -3.7395372 0.766496 14
33.985878 -3.7280447 0.98171359 15
33.25742 -3.5053499 1.1256976 21
34.250278 -3.6825535 1.2581061 9
33.272846 -3.4225342 1.2008123 7
34.0271 -3.4713378 1.5090508 17
34.240608 -3.5236087 1.445927 4
34.134392 -3.2848713 1.642038 23
33.432705 -3.2108114 1.6886513 13
32.923416 -3.2854521 1.4178534 2
32.838009 -2.9930475 1.1310136 8
33.173668 -2.6796603 1.1317569 1
34.535858 -3.1195028 1.6726886 6
32.902431 -3.0945687 1.5904845 39
33.13805 -2.9457986 1.7557348 12
33.030148 -2.9104412 1.705767 19
32.34494 -3.3285496 0.96608925 12
32.564842 -3.1220524 1.4217914 0
34.121628 -2.5807419 1.6472315 27
34.370281 -2.5554221 1.8526372 5
33.126862 -2.7018209 1.7284452 37
33.113583 -2.7195401 1.8376726 30
32.607525 -2.8873191 1.3712872 4
32.595535 -2.7785137 1.3848743 5
32.107822 -3.3205209 1.0775276 32
33.13345 -2.3046362 1.0156348 3
32.145424 -3.1337106 1.2297505 1
32.021553 -3.2261708 0.63319695 10
33.374958 -2.1977251 1.0054003 1
32.638828 -2.5877178 1.5262386 34
33.169121 -2.459228 1.6841098 23
32.795933 -2.3985839 1.6244527 30
33.222 -2.2160764 1.6400936 23
33.196251 -2.2141023 1.6374843 27
31.931921 -3.0563693 1.0887797 15
33.374935 -1.9482201 0.98542792 1
33.308739 -2.0160627 1.7492622 33
33.101986 -1.9642658 1.6607404 3
31.676701 -2.8042111 1.155092 16
31.706585 -2.6275129 1.2402543 3
32.69141 -1.8754399 1.484229 11
31.551613 -2.8090596 1.1454816 24
31.636545 -2.5670044 1.1406598 20
32.558167 -1.6757669 1.2715117 9
31.486685 -2.9941001 1.0086367 29
31.59367 -2.3297198 1.1321075 26
32.556194 -1.5487553 1.1922178 54
31.780912 -1.9323678 1.1949385 14
32.673531 -1.4360617 1.2143269 28
32.021149 -1.7370764 1.2506437 1
31.579624 -2.0941012 1.1139822 35
31.562202 -2.1240072 1.1314752 34
30.981176 -2.8709755 0.74157417 45
31.294937 -2.3098862 1.0836983 63
31.595396 -1.8569447 1.0890735 50
31.03701 -2.4901838 1.0323493 69
30.953272 -2.6775236 0.91079777 30
30.810209 -2.4585049 0.56384408 75
30.767824 -2.3803504 0.67379141 66
31.596258 -1.6228893 1.0732843 54
30.801594 -2.1855555 0.81137061 53
30.802576 -2.2238896 0.60091782 71
30.901312 -1.9915416 0.91932213 61
31.628538 -1.3878102 1.0482321 29
31.57247 -1.4065143 1.0838934 15
31.073601 -1.7987441 0.99799484 69
30.903149 -1.9975108 0.59539002 150
31.331484 -1.6055371 1.0377551 57
30.968248 -1.7695718 0.61047578 150
31.028206 -1.5389445 0.62892592 48
31.227995 -1.3062782 0.59735769 16
