# .PCD v0.7 - Point Cloud Data file format
VERSION 0.7
FIELDS x y z intensity
SIZE 4 4 4 4
TYPE F F F F
COUNT 1 1 1 1
WIDTH 64
HEIGHT 1
VIEWPOINT 0 0 0 1 0 0 0
POINTS 64
DATA ascii
33.0252 -0.98539817 0.66244197 14
32.771698 -1.1331216 0.62846076 28
32.998405 -1.2381079 1.0099618 52
32.643158 -1.2215554 0.80389881 34
33.338211 -1.2697979 1.1117271 18
32.650608 -1.393351 0.95422733 61
33.358856 -1.5204654 1.1025746 40
32.458771 -1.4618529 0.87304002 51
32.435627 -1.5462233 0.84821874 52
33.237228 -1.765779 1.1512331 25
32.367908 -1.7005707 0.91149294 36
32.324997 -1.7026578 0.69945925 95
33.162525 -2.0098004 1.1855359 11
32.241482 -1.8583359 0.53739434 52
32.309368 -1.9404901 0.93840778 68
33.058357 -2.2530918 1.2337348 2
32.349907 -2.1866763 0.93225849 55
32.437096 -2.4347219 0.91186762 22
34.171303 -1.8395708 1.3906964 15
34.287861 -1.5873679 1.345336 7
34.199245 -1.8570549 1.4198127 8
32.634499 -2.6943409 0.8514362 37
34.039867 -2.3397171 1.4558026 14
34.283184 -2.0998914 1.3598831 1
33.943455 -2.5874262 1.5051345 27
33.189419 -2.934871 1.1469032 27
34.037403 -2.6722071 1.6088891 30
34.31884 -2.4604478 1.6429437 24
33.876656 -2.833082 1.5477287 40
34.408123 -2.5724065 0.96575892 1
33.271828 -3.0110388 1.2070377 33
33.062878 -2.9743872 0.70503247 24
33.854431 -2.8822052 1.5428531 41
33.360046 -3.1715395 0.94637018 31
33.690315 -3.092344 1.4636171 30
33.493267 -3.278583 1.1497356 44
33.876369 -3.0859663 1.5699216 34
34.58567 -2.2490325 1.6777222 7
33.525906 -3.2655439 0.55075467 30
33.868469 -3.32932 1.263183 1
34.652557 -2.3543258 1.0104383 1
34.704651 -2.4126332 1.8111722 4
34.583355 -2.663394 1.8680891 8
34.488029 -2.8307998 1.9635738 15
33.743221 -3.4308867 0.66057384 27
34.553818 -3.062948 1.8048706 8
34.193264 -3.2540081 1.7922553 11
34.201344 -3.3670626 1.4815942 14
34.442814 -3.4978595 1.56601 25
34.035511 -3.5667202 1.0604961 37
34.07254 -3.5865431 0.96528625 33
35.420509 -2.9850421 1.6091435 10
34.400349 -3.8294804 0.77851272 33
34.548908 -3.8875494 0.82419449 31
35.585049 -3.2608712 1.5782092 15
35.205341 -3.6902261 1.8189075 8
34.798965 -3.9813113 1.1477432 32
34.98085 -3.9542058 1.2734607 32
35.589207 -3.5241754 1.6035209 14
35.414822 -3.7693131 1.6938906 6
35.36599 -3.9311957 1.6169069 9
35.019382 -4.2286191 0.91675603 30
35.112305 -4.2091827 0.65545887 16
35.400475 -4.2607117 1.1658932 23
