# .PCD v0.7 - Point Cloud Data file format
VERSION 0.7
FIELDS x y z intensity
SIZE 4 4 4 4
TYPE F F F F
COUNT 1 1 1 1
WIDTH 63
HEIGHT 1
VIEWPOINT 0 0 0 1 0 0 0
POINTS 63
DATA ascii
33.007057 -2.8674119 0.52292407 17
32.969234 -2.8831158 0.55467886 11
33.096912 -2.9100289 1.0797232 26
32.592258 -2.6601958 0.87355036 62
32.474846 -2.591223 0.74444938 30
33.327766 -3.1836188 1.002183 38
32.891895 -2.6449831 1.1516103 21
32.64151 -2.4927878 1.0431136 58
32.882107 -2.397428 1.1539531 25
32.870029 -2.3390627 1.1421028 28
32.266403 -2.3725467 0.71946031 65
32.288422 -2.3283648 0.81666195 36
32.930405 -2.1519587 1.1380042 35
33.07518 -2.1814463 1.2482029 2
32.285667 -2.2015774 0.89477283 45
33.839897 -3.4896369 0.82340658 30
33.550186 -2.9754491 1.4857812 27
32.437263 -2.0376794 1.0158703 68
33.006023 -1.9126546 1.1159958 43
32.258568 -2.0805581 0.83148795 73
32.766804 -1.884742 1.0677501 55
33.720772 -2.7444897 1.419349 3
32.189735 -1.9277295 0.64134336 93
33.126762 -1.7259482 1.1116071 35
33.935711 -3.2699778 1.3586432 0
32.249729 -1.8372661 0.84188646 66
33.090969 -1.6682663 1.0935661 44
32.277866 -1.7528121 0.78412122 34
32.352272 -1.6000214 0.81181532 30
32.43618 -1.5799875 0.89820921 52
34.200199 -3.4307506 1.6496034 24
34.182743 -3.1906674 1.7770329 14
34.394932 -3.5712166 1.2081426 0
34.340103 -3.8046827 0.6519655 30
34.306183 -3.0771699 1.7963923 8
34.358582 -2.831461 1.7721317 81
34.00972 -1.8895961 1.2686108 8
34.356426 -2.9699214 1.8339338 14
32.663399 -1.4055431 0.98597467 64
32.48204 -1.3638446 0.77566355 32
33.164238 -1.4246637 1.078337 39
32.583134 -1.2973614 0.53770345 150
33.518669 -1.5638424 1.1429389 22
33.024151 -1.2379489 1.0202446 50
34.061226 -1.755632 1.3097118 7
32.712513 -1.1290039 0.70282215 28
34.573982 -3.7095618 1.395143 0
34.585503 -3.8515606 1.1567153 26
34.591003 -3.3644571 1.7110543 5
34.493042 -2.5864272 1.7212304 28
33.181526 -1.1747814 1.0890715 19
32.757908 -1.1124791 0.64426929 34
34.029381 -1.7031279 1.4426423 1
34.257298 -1.5113974 1.2509569 3
34.779976 -3.9755204 1.1937908 30
34.979298 -4.1611853 1.039958 32
34.991955 -3.6682723 1.5903019 18
35.010426 -4.2438064 0.97882175 29
34.711697 -2.3175769 1.0629747 1
34.650612 -2.3393879 1.667362 31
35.242649 -3.9565363 1.5232109 19
35.424049 -3.6962695 1.7555305 4
35.424656 -3.9388437 1.62633 7
