# .PCD v0.7 - Point Cloud Data file format
VERSION 0.7
FIELDS x y z intensity
SIZE 4 4 4 4
TYPE F F F F
COUNT 1 1 1 1
WIDTH 71
HEIGHT 1
VIEWPOINT 0 0 0 1 0 0 0
POINTS 71
DATA ascii
33.053097 -0.93707824 0.78413099 18
32.989449 -0.96245992 0.55207759 8
32.69091 -1.1754916 0.91083801 36
33.401249 -1.2136201 1.2106724 1
32.561069 -1.4196321 0.95107728 66
33.5457 -1.467914 1.1494211 23
33.328754 -1.7123812 1.222769 4
32.464767 -1.658192 0.98245502 69
33.399857 -1.7121552 1.2176208 3
33.141266 -1.9277619 1.182472 15
33.952629 -1.5004297 1.143907 10
33.258076 -1.9618486 1.2476395 0
32.421227 -1.9035847 0.99705875 69
32.924324 -2.1405542 1.1301876 31
32.426437 -2.1475677 0.99579674 70
32.71106 -2.3461068 1.0747465 59
32.505745 -2.396944 0.97112632 32
32.615116 -2.5577166 0.97324449 65
34.20842 -1.7708068 1.4818021 4
34.1726 -1.870733 1.4463807 14
34.292889 -2.0331004 1.4518766 19
34.130653 -2.2789834 1.513016 32
32.71228 -2.6540391 0.89990354 59
32.793385 -2.7853982 0.7641741 26
34.0172 -2.5265901 1.5593685 35
34.367699 -2.2654989 0.84506065 1
33.186424 -2.919245 1.1093138 20
33.936409 -2.7530122 1.0189632 1
33.103256 -2.9276266 0.76422071 26
33.367409 -2.9633632 1.2416158 35
34.274681 -2.4517946 1.6458375 19
34.561855 -2.3420877 1.0354713 1
33.993992 -2.6549971 1.6038439 35
34.780369 -2.1262348 1.0965987 1
34.083515 -2.7638583 0.92384821 0
33.945549 -2.7768435 1.5958773 31
34.657776 -2.2465155 1.6537955 36
33.841198 -2.8605843 1.5150266 43
33.723251 -3.0691953 1.4099188 12
33.416145 -3.1526821 0.87552661 33
33.71452 -3.2396479 1.1308829 27
34.026268 -3.0325825 1.5823227 27
33.576481 -3.2125101 0.59793419 33
34.849251 -2.3475757 1.8463666 0
33.890923 -3.2964272 1.2015433 6
34.618622 -2.5918944 1.9325911 5
34.471382 -2.8038578 1.9427065 11
34.484909 -3.0242922 1.7910371 6
33.799934 -3.397851 0.57996774 27
34.040909 -3.5208192 0.99360526 36
34.187878 -3.2159581 1.7469137 21
34.262215 -3.3054421 1.5181568 18
34.131081 -3.5256736 0.9990679 37
34.439674 -3.4479058 1.5093956 17
34.497578 -3.6656106 1.3347112 1
34.423988 -3.7681863 0.69723684 31
35.581493 -2.9145224 1.6255496 7
34.596752 -3.8237994 0.85566038 30
34.752766 -3.8993878 1.0880711 37
35.616596 -3.1771955 1.63024 11
35.228226 -3.6246898 1.747779 17
35.032742 -3.8867476 1.2989565 30
35.648975 -3.4448941 1.6398633 9
35.832417 -3.4605043 1.7048675 1
35.012035 -4.1388917 0.83115888 28
35.508373 -3.6951458 1.7098978 2
35.325256 -3.8475485 1.5588213 16
35.350681 -4.0641289 1.3874373 0
35.112175 -4.1316524 0.69735199 17
35.428356 -4.1843204 1.1934888 17
35.409374 -4.2812405 1.2042668 1
