# .PCD v0.7 - Point Cloud Data file format
VERSION 0.7
FIELDS x y z intensity
SIZE 4 4 4 4
TYPE F F F F
COUNT 1 1 1 1
WIDTH 68
HEIGHT 1
VIEWPOINT 0 0 0 1 0 0 0
POINTS 68
DATA ascii
32.194229 -0.78124881 0.78851503 24
32.2682 -0.71554774 0.64632517 17
31.976324 -0.90149862 0.60209787 26
32.13147 -1.0167391 1.0147631 64
31.933933 -1.0085104 0.83787543 27
32.455032 -0.83248365 1.0527897 16
32.572575 -0.98562437 1.0602237 40
31.872288 -1.198328 0.94952244 67
31.771704 -1.2414105 0.85131556 60
32.520191 -1.227069 1.0915596 39
32.614552 -1.3288356 1.1385008 33
31.699345 -1.3761297 0.8523683 32
32.284653 -1.5019512 1.094749 57
32.48103 -1.4664948 1.1225116 33
31.664808 -1.4730908 0.84613258 43
31.937006 -1.6701537 1.0566115 63
33.004841 -1.1551358 1.1581728 18
31.566149 -1.5542239 0.73654968 88
32.441628 -1.7102331 1.1566826 21
31.618883 -1.7043383 0.822923 77
31.532162 -1.7322544 0.57823861 81
31.70059 -1.8365144 0.97487974 68
32.389442 -1.9500569 1.1982819 6
32.323048 -1.9664354 1.2013927 12
31.61348 -1.9379919 0.78604525 73
31.637133 -2.0094266 0.82627833 50
32.118488 -2.1278508 1.1040277 40
31.723629 -2.1831934 0.70565176 76
32.418346 -2.1905699 1.2124782 1
31.664881 -2.185281 0.63834816 63
31.976084 -2.294323 0.98012686 64
33.446835 -1.4716674 1.3071928 6
33.446098 -1.5369114 1.3371842 17
33.55492 -1.291682 1.281732 29
32.110695 -2.4753642 0.74570471 25
33.577881 -1.2861614 1.4296783 1
33.326813 -2.0284297 1.4254726 2
33.64241 -1.7766262 1.5391281 17
33.548378 -1.9548628 1.3985933 12
32.720505 -2.4322424 1.1624382 0
32.62257 -2.4424386 1.1644144 0
33.266949 -2.2692759 1.4732306 20
32.45686 -2.5852156 1.0783494 28
32.629631 -2.6804895 1.1946297 30
32.571789 -2.7627861 0.84902757 30
33.217255 -2.5078111 1.5213976 36
34.051182 -1.8173435 1.1401787 1
33.205322 -2.7496095 1.5607631 33
32.790607 -2.9351113 1.1692864 42
32.857361 -2.9564273 0.5473693 26
34.02269 -2.0994639 1.7622629 12
33.520584 -3.0209668 1.4849451 12
33.396374 -3.2333336 0.982674 31
33.91082 -2.3386724 1.8277379 23
33.916332 -2.5873697 1.8584957 7
33.870468 -3.5242355 0.85108459 24
34.985313 -2.6666374 1.7835325 0
34.887806 -2.9147954 1.5621219 14
34.31591 -3.5916097 1.2884867 31
34.562691 -3.3496399 1.5825725 19
34.464039 -3.5776534 1.4955827 18
34.80875 -3.1346805 1.6166929 11
34.655819 -3.3996422 1.7242591 12
35.050373 -2.9155612 1.6498543 8
34.902771 -3.1676679 1.5966656 15
34.291462 -3.8160641 0.74270564 18
34.679165 -3.8352816 1.2948521 4
34.723259 -3.8820798 1.193998 24
