# .PCD v0.7 - Point Cloud Data file format
VERSION 0.7
FIELDS x y z intensity
SIZE 4 4 4 4
TYPE F F F F
COUNT 1 1 1 1
WIDTH 78
HEIGHT 1
VIEWPOINT 0 0 0 1 0 0 0
POINTS 78
DATA ascii
32.069153 -0.026684005 0.90790546 4
32.031197 -0.13192809 1.0397105 22
32.229664 -0.24556126 1.0859183 23
31.859003 -0.0061937091 0.63401312 13
31.688732 -0.24913141 0.98979682 66
31.688179 -0.31806707 1.0174222 69
32.182892 -0.48638898 1.1013013 38
31.526859 -0.19920695 0.61100662 150
32.205975 -0.64122796 1.1255577 38
32.524261 -0.45818287 1.1677855 12
31.501881 -0.47733176 0.99832392 73
32.108788 -0.72646272 1.1300366 29
31.429951 -0.5030666 0.96052319 68
31.853287 -0.81696057 1.099508 53
32.009819 -0.9622044 1.172479 16
31.348602 -0.70517868 0.99805737 74
31.226377 -0.68465614 0.88101763 47
31.512815 -0.98976433 1.0660996 63
31.174429 -0.68778211 0.53697127 50
31.928312 -1.195107 1.2113566 3
31.242212 -0.93364269 0.98242217 83
32.953663 -0.7827 1.3207794 5
31.110422 -0.86447078 0.76615363 113
33.017052 -0.78929639 1.3548976 3
31.870754 -1.2927601 1.2231435 3
31.264744 -1.1587495 0.99709922 72
31.22279 -1.1628636 0.9388575 65
31.938465 -1.4357612 1.218039 0
31.053034 -1.0478976 0.62151772 55
33.043091 -1.0352176 1.3491942 1
31.636517 -1.4572376 1.1422119 30
31.224091 -1.3372124 0.8439033 54
31.275995 -1.3999559 0.86704659 76
31.569916 -1.6312273 0.99473709 71
33.033207 -1.2782824 1.4262704 10
33.198128 -1.0991968 1.5376252 3
32.781673 -1.5114037 1.4662435 12
31.293766 -1.5208122 0.64326417 21
32.383434 -1.7831273 1.141807 0
31.45332 -1.6464517 0.74835175 20
32.678577 -1.7495279 1.5190915 28
32.062428 -1.9204738 1.204298 15
31.981396 -1.9295057 1.1180811 19
31.649614 -1.8133157 0.78525692 34
32.832157 -1.7360325 1.6193576 30
32.634567 -1.8987944 1.5143448 31
31.766844 -1.9056928 0.57757366 16
32.35804 -2.050859 1.4361036 33
32.621952 -1.9874808 1.5597696 38
32.052895 -2.1091909 0.90762591 55
33.286373 -1.6623107 0.98087031 2
33.568264 -1.3084651 1.1665516 1
33.327744 -1.5861566 1.6195972 18
32.014774 -2.1574912 1.2436541 32
32.0812 -2.1989961 1.3599787 2
32.266521 -2.2970314 0.63936061 30
32.451912 -2.4000249 1.034168 56
32.722031 -2.2378309 1.546098 26
32.561687 -2.4444876 1.0595744 53
33.572388 -1.4167576 1.7080961 28
33.731285 -1.348366 1.6865771 1
33.491291 -1.5847747 1.7835172 9
33.280716 -1.8187366 1.873765 20
32.985703 -2.5051703 1.4763095 8
32.610165 -2.5820811 0.78551817 32
34.003555 -2.1185441 1.6437422 3
32.857563 -2.7156377 0.97622204 37
33.199005 -2.9929099 0.87995654 31
33.571762 -3.0516093 1.3287001 47
34.3297 -2.3993871 1.5546155 13
33.888233 -2.8649778 1.7683246 19
33.840809 -2.8820329 1.8749574 3
34.296284 -2.6508598 1.5955411 14
33.497807 -3.2729986 0.80418199 27
34.149715 -3.1529627 1.6486365 4
33.883675 -3.3361697 1.2547021 14
34.26088 -3.150126 1.675333 1
33.929474 -3.5697987 0.6803357 17
