# .PCD v0.7 - Point Cloud Data file format
VERSION 0.7
FIELDS x y z intensity
SIZE 4 4 4 4
TYPE F F F F
COUNT 1 1 1 1
WIDTH 81
HEIGHT 1
VIEWPOINT 0 0 0 1 0 0 0
POINTS 81
DATA ascii
31.720701 0.53840446 0.78814775 1
31.50005 0.35227931 0.93363762 29
31.378864 0.29783204 0.89666259 29
32.051353 0.27037498 1.1840551 2
31.879642 0.049883801 1.0876068 41
32.058517 0.23307137 1.1825716 2
31.202923 0.16549622 0.88930166 34
31.180559 0.064395361 0.95306331 57
32.150719 0.029626746 1.1212789 33
31.506145 -0.13098677 1.0642304 59
32.003384 -0.20816609 1.1581848 27
31.032625 -0.013760049 0.79411972 30
31.049959 -0.16948937 0.98451489 65
31.144022 -0.30610895 1.0367824 65
31.830153 -0.42643705 1.2264718 7
31.836212 -0.44462448 1.205435 9
30.877914 -0.19425613 0.68866777 84
31.582096 -0.59688276 1.1494824 29
32.552467 -0.25991657 1.1256266 5
30.978245 -0.40087065 0.99639159 76
30.938457 -0.47597733 0.94866478 78
31.722094 -0.68007255 1.2377572 2
31.29809 -0.76146036 1.0859734 63
30.978895 -0.63474721 0.9831543 61
30.848694 -0.64799029 0.81165498 58
32.934219 -0.25135696 1.3667581 3
32.693695 -0.5558787 1.3656909 18
32.77018 -0.49207234 1.410131 8
32.632729 -0.732952 1.4496511 0
31.914698 -1.0537754 1.1230178 0
30.871017 -0.81988317 0.62566835 75
31.050457 -0.87135684 0.94311607 79
31.099812 -0.92413586 0.98760426 84
31.183771 -1.1140296 0.88284445 64
31.10903 -1.0928043 0.80294687 45
31.421089 -1.2008942 1.1317582 28
32.562946 -0.97643042 1.4663166 11
32.877613 -0.84677941 1.5872914 19
32.652344 -1.0132431 1.4877549 24
32.362576 -1.1723238 1.4112253 3
32.431473 -1.2161727 1.5094277 33
31.692707 -1.3962412 1.2312063 45
31.466187 -1.3650486 0.93042696 59
31.430161 -1.3608404 0.78165013 54
31.774416 -1.4712374 1.2664249 27
31.60408 -1.5347974 0.69039333 59
31.624969 -1.6208978 1.1396331 70
32.299225 -1.4521879 1.5568398 52
31.666096 -1.6351779 1.2427298 57
31.716854 -1.618711 0.66692209 55
32.280495 -1.6954561 1.566345 34
31.873476 -1.7950623 0.85312301 62
32.089764 -1.9021177 1.0850111 54
33.325531 -1.0354739 1.7542379 28
33.096565 -1.2744671 1.8300935 7
31.969467 -1.8745792 0.56936234 42
32.043579 -1.9629513 0.59223521 55
32.4734 -1.9484932 1.5019571 22
32.871906 -1.5115823 1.9079005 22
32.315361 -2.157573 1.0058876 68
33.790054 -1.742179 1.7041218 2
33.760906 -1.8133436 1.5998149 2
33.023247 -2.3768489 1.6168132 18
33.329514 -2.2565219 1.1963384 3
32.565735 -2.4197121 0.92241949 58
33.579494 -2.1914337 1.5416603 5
33.892818 -1.981063 1.5515347 5
33.919041 -2.074789 1.5528859 13
33.103283 -2.6072617 1.4618158 36
32.83942 -2.6887736 0.83292097 68
33.152332 -2.7350981 1.2911168 64
33.483669 -2.5438905 1.7296094 18
33.233261 -2.8442199 1.2855465 30
33.846436 -2.321789 1.5878992 19
33.136551 -2.95965 0.73833823 24
33.395042 -3.0048058 1.2242041 24
33.359863 -3.080689 1.1049854 57
33.757736 -2.8154478 1.6514089 3
33.853481 -2.7976692 1.696457 1
33.461845 -3.2414589 0.6365 27
33.520245 -3.3223064 0.90736806 0
