# .PCD v0.7 - Point Cloud Data file format
VERSION 0.7
FIELDS x y z intensity
SIZE 4 4 4 4
TYPE F F F F
COUNT 1 1 1 1
WIDTH 90
HEIGHT 1
VIEWPOINT 0 0 0 1 0 0 0
POINTS 90
DATA ascii
31.319847 0.63241315 0.6878956 24
31.174038 0.51290214 0.58692092 150
31.438034 0.49345398 1.0256501 61
31.724821 0.7761696 0.73110127 0
31.278296 0.25710094 1.0517328 61
31.788168 0.7310636 0.92596072 1
30.909506 0.2774289 0.65901881 54
31.165539 0.023716778 1.0654882 60
31.75425 0.08386039 1.1060952 50
30.753712 0.044755638 0.69126153 92
31.415918 -0.11715604 1.0947404 56
32.075089 0.29200706 1.1219401 23
31.085375 -0.20792416 1.0675924 65
30.701048 -0.1823432 0.68508023 79
31.117458 -0.31464791 1.0687743 62
32.264282 0.23585109 1.2168158 3
31.028454 -0.44239134 1.0667504 66
30.735613 -0.41689628 0.64479715 93
30.948071 -0.50621444 0.99035877 54
32.416706 -0.0046866457 1.1271627 3
31.075018 -0.6783399 1.0264457 78
31.506403 -0.63392466 1.2365921 0
30.934938 -0.701473 0.84526163 81
31.311697 -0.82115304 1.1626792 27
31.154568 -0.90114224 0.60107046 7
31.200708 -0.91765583 0.95720989 80
32.747604 -0.045726474 1.209586 21
31.305531 -1.0144651 1.0095348 81
32.731899 -0.27696767 1.5359527 1
31.601643 -1.1304034 1.3624798 17
31.412775 -1.1616935 0.85716248 64
31.415928 -1.2069281 0.80830675 69
31.679543 -1.1910396 1.3014904 35
32.661407 -0.57921404 1.4268166 2
31.533669 -1.3180841 1.229571 49
32.822865 -0.38077807 1.5175598 2
32.749954 -0.521806 1.5042504 9
32.56625 -0.762537 1.552164 37
32.402733 -1.0014921 1.5937378 42
32.461975 -1.0829375 1.6681373 18
31.642656 -1.4108758 0.75561851 67
31.596579 -1.4065851 0.57327962 58
31.641891 -1.5098448 1.0247681 63
31.94083 -1.4430149 1.1917632 21
32.210888 -1.2657936 1.6016878 36
32.797348 -0.99028444 0.88872176 2
32.270256 -1.2393188 1.6292471 29
32.019329 -1.4443586 1.51134 28
32.8797 -0.98360544 1.0335225 2
33.010906 -0.90782088 1.6257417 27
33.240917 -0.80867237 1.8661969 10
31.889336 -1.6652527 0.64870876 62
31.897392 -1.7116392 0.7577793 62
32.044876 -1.6903582 1.1458614 26
32.250008 -1.4808952 1.6282022 24
32.128807 -1.8219991 1.1399896 33
32.366455 -1.7304196 1.5790813 30
32.360535 -1.7523127 1.6894417 24
32.527767 -1.5767964 1.7934276 9
32.222885 -1.9433757 1.0734446 67
32.129498 -1.9213763 0.54766244 44
32.20219 -2.0146215 0.93914372 68
32.747753 -1.3987484 1.8784111 6
32.522217 -1.9503729 1.4603913 12
32.626415 -1.9904301 1.4811714 16
32.440918 -2.2022653 0.99062419 65
32.589649 -2.1362979 1.2630903 2
32.393967 -2.2100716 0.68978262 59
32.760937 -2.2472389 1.4336144 0
32.583378 -2.3165371 1.0932715 60
33.665913 -1.5762668 1.6786056 2
32.974602 -2.2609615 1.5949639 24
32.960106 -2.4389086 1.42417 57
32.684654 -2.4694135 0.90118277 70
32.69371 -2.5049691 0.87133741 70
33.779743 -1.8348726 1.6354514 22
33.981796 -1.7621934 1.7584635 0
33.786884 -1.9428859 1.6535149 9
33.56139 -2.1166277 1.5595827 15
33.016266 -2.5128477 1.3452559 60
33.333805 -2.3112457 1.7920781 12
33.824749 -2.0917666 1.6185536 16
32.90736 -2.7019627 0.60696828 10
32.932655 -2.7356415 0.81267977 34
33.012699 -2.6219609 1.2255462 68
33.050518 -2.8023207 1.0297189 68
33.224304 -2.7798302 1.2775543 11
33.170422 -2.9871578 0.79903507 32
33.246414 -3.0128644 0.70607257 30
33.722301 -2.5931218 1.6628718 1
