# .PCD v0.7 - Point Cloud Data file format
VERSION 0.7
FIELDS x y z intensity
SIZE 4 4 4 4
TYPE F F F F
COUNT 1 1 1 1
WIDTH 73
HEIGHT 1
VIEWPOINT 0 0 0 1 0 0 0
POINTS 73
DATA ascii
31.275558 -0.97482073 0.55145234 10
31.335365 -1.0899476 0.60010183 18
31.077082 -0.85834205 0.75401324 24
31.049538 -0.83327723 0.84031558 65
31.471804 -1.1025219 1.0795093 54
30.928867 -0.62968421 0.86475813 94
31.085117 -0.687038 1.0204433 74
30.825104 -0.60511863 0.68050033 79
31.378975 -0.87091523 1.1643604 18
31.639465 -1.337689 0.97104675 69
31.317728 -0.54037422 1.1180847 50
30.848398 -0.45586407 0.86170912 53
31.424517 -0.6386745 1.1954832 12
30.88397 -0.40081078 0.93817782 61
30.941828 -0.30576941 1.0101097 75
31.853098 -1.5778874 0.84550655 69
31.560543 -0.40575784 1.1977891 15
31.605316 -0.386042 1.1970812 13
30.728321 -0.21628582 0.65167242 70
31.262941 -0.14404809 1.0698699 58
30.916386 -0.17261827 0.98417854 83
30.807817 -0.057562698 0.8045786 86
31.75559 -0.16827339 1.1814884 18
30.816322 0.065665208 0.55909157 74
31.016726 0.057499081 1.0061979 71
30.96706 0.10649565 0.92517811 55
31.665424 0.024476573 1.0968701 49
32.116737 -1.8262219 0.70292759 66
32.089825 -1.2970685 1.4945706 28
31.001135 0.29726133 0.54661161 150
32.128155 -1.7216389 1.2199407 6
31.221012 0.27594724 1.0054308 68
31.190588 0.2890701 1.0007156 67
31.123314 0.37691396 0.59170812 150
32.335629 -1.5141743 1.2723061 3
31.986544 0.069513023 1.1558036 27
32.316128 -1.0822551 1.5367062 33
32.231392 -1.9349411 1.0441434 70
32.354492 -2.0736511 0.576397 58
31.271351 0.5495404 0.71093333 48
31.610603 0.45470694 1.03043 54
31.407587 0.52292609 0.98288876 62
32.057594 0.19930327 1.1316097 29
32.572334 -0.86633778 1.5637759 30
32.420189 -1.636956 1.7271019 34
32.431252 -0.089355104 1.1688628 1
32.413315 -2.1533935 0.83342731 60
32.534294 -1.8486277 1.5536028 24
32.166481 0.30773211 1.1517063 15
32.384773 0.14999679 1.1866708 7
32.67247 -1.4308455 1.7657235 21
32.785347 -0.84689391 1.6245677 27
32.941723 -0.81773943 0.99702662 2
32.710506 -2.275017 1.208882 23
32.614578 -2.372529 0.6104334 59
32.85437 -1.2159941 1.8297946 31
31.687868 0.740031 0.72040087 3
31.788168 0.77027142 0.90656245 2
32.699345 -0.053429741 1.1560248 24
32.813972 -0.64515704 1.5976466 22
32.833729 -0.60392773 1.5968513 23
32.809177 -2.489203 1.0270605 72
32.845295 -0.35559335 1.5848457 1
32.943142 -2.7068963 0.82575095 34
33.355785 -2.0903919 1.1121929 10
33.240074 -1.001465 1.8199644 2
33.13512 -2.4066169 1.5429832 40
33.206997 -2.6176319 1.3680973 22
33.431095 -2.2089434 1.5806911 17
33.311447 -2.8320944 1.179603 34
33.851761 -1.7969085 1.7119013 14
33.802483 -2.0083299 1.5914115 16
33.479797 -3.0505872 0.96209329 24
