# .PCD v0.7 - Point Cloud Data file format
VERSION 0.7
FIELDS x y z intensity
SIZE 4 4 4 4
TYPE F F F F
COUNT 1 1 1 1
WIDTH 81
HEIGHT 1
VIEWPOINT 0 0 0 1 0 0 0
POINTS 81
DATA ascii
33.454582 -3.2552247 0.90451699 26
33.339542 -3.1464977 0.88490635 35
33.307373 -3.0345464 1.1413397 35
33.06015 -2.8478255 0.96988648 64
33.49596 -2.9431267 1.3904606 2
33.012745 -2.8877873 0.76797557 27
33.272003 -2.8340065 1.3301042 18
32.887424 -2.6715496 0.99386328 72
33.226681 -2.6518371 1.4696343 28
33.229664 -2.6325333 1.5207047 28
32.841946 -2.5647562 1.0356195 72
33.285175 -2.3372931 1.1882226 1
33.479656 -2.4759064 1.5992434 23
32.817692 -2.4651928 1.1906375 29
32.713135 -2.5459137 0.57641053 33
33.061485 -2.377317 1.5131454 22
33.928177 -2.3433018 1.6111346 16
32.624817 -2.2856591 1.1031047 60
32.552685 -2.3200788 0.81364143 58
32.505909 -2.2471607 0.57737523 34
34.223862 -2.3297076 1.6671941 2
32.821831 -2.092772 1.5896758 23
34.048832 -2.1607971 1.7340955 2
32.739159 -2.056531 1.5547694 24
32.387283 -2.095787 1.0469865 69
32.445583 -2.0149059 1.1626647 25
33.959423 -2.0378566 1.7492409 21
32.284897 -1.9711637 0.65618777 56
32.331066 -1.8919075 1.2298704 7
32.253952 -1.9759067 0.61876643 60
32.568855 -1.8124633 1.6727562 25
33.0238 -1.6980629 1.7706765 5
32.573208 -1.8357968 1.7758254 9
32.445671 -1.706974 1.347193 1
32.268917 -1.7448597 1.2236155 3
33.975491 -1.7843127 1.7378849 0
32.644981 -1.5736829 1.6424496 14
32.498096 -1.5288531 1.1334051 9
32.048679 -1.7447293 0.86364156 65
32.033478 -1.6891171 0.75024968 58
32.29126 -1.4832901 1.5621519 37
32.968746 -1.4856308 1.9471236 16
32.97929 -1.4023618 2.0815251 0
32.603302 -1.3245026 1.6554803 15
32.529804 -1.3106475 1.6303854 25
33.043819 -1.1054789 0.93004662 4
32.88348 -1.1467084 1.6539358 14
33.220634 -1.065088 1.0432943 1
33.319721 -0.9876802 1.6465234 20
32.718151 -1.0929294 1.6170441 28
31.808876 -1.4150676 0.83825117 62
31.743826 -1.4991617 1.1440139 64
32.327377 -1.1674923 1.2276864 0
31.759951 -1.3938031 0.66310221 62
32.915516 -0.87253052 1.5517403 38
33.475327 -0.96562922 1.9160949 1
31.825665 -1.3110534 1.265808 26
31.914162 -1.2115248 1.3561629 25
31.61186 -1.1508281 0.91791773 51
31.581144 -1.1651523 0.89172357 55
33.0933 -0.64132077 1.497864 4
32.999069 -0.61195016 1.4225066 3
31.508442 -0.95243567 1.0727946 58
31.441652 -0.89261705 0.99258184 73
31.57391 -0.75450921 1.1937883 10
31.890129 -0.58071572 1.2158558 1
31.339523 -0.64566344 1.0410578 68
32.842625 -0.248161 1.1357566 3
32.578869 -0.072782226 1.1587486 6
31.337227 -0.40800884 1.0540155 62
32.541183 0.17689198 1.1955409 6
31.040314 -0.48104674 0.66077596 102
31.380322 -0.17830592 1.0519214 59
31.021786 -0.24978736 0.73995388 105
31.469845 0.051641393 1.0356095 58
31.087326 -0.0303756 0.78978616 103
31.574646 0.28084084 1.017357 59
31.222927 0.18612593 0.81401372 26
31.414906 0.39647892 0.81826407 33
31.752958 0.50362283 0.97256953 56
31.699776 0.6033836 0.79196268 26
