# .PCD v0.7 - Point Cloud Data file format
VERSION 0.7
FIELDS x y z intensity
SIZE 4 4 4 4
TYPE F F F F
COUNT 1 1 1 1
WIDTH 101
HEIGHT 1
VIEWPOINT 0 0 0 1 0 0 0
POINTS 101
DATA ascii
31.924 0.3640689 0.85108149 20
31.782694 0.13367742 1.0145161 51
31.648182 0.31308952 0.60896826 26
31.742628 0.070671953 1.0378768 60
31.501385 0.22207244 0.66911846 30
31.516094 0.10292178 0.96901375 60
32.230553 -0.10467832 1.1103022 24
31.427176 -0.040888663 0.96781039 62
31.551935 -0.16912253 1.0469546 65
31.339252 0.06449198 0.66460198 150
31.803095 -0.27511358 1.0843217 52
32.366341 -0.11893697 1.148632 18
31.350885 0.054668237 0.54499805 150
31.332098 -0.14037624 1.003309 67
32.165302 -0.37139952 1.1896644 11
31.183352 -0.20556585 0.87933058 40
31.397535 -0.40573978 1.0464895 65
31.138927 -0.1720859 0.68128204 56
31.407845 -0.44033611 1.0477499 60
31.218615 -0.38183022 1.0140009 70
31.977633 -0.61397004 1.231101 2
31.023752 -0.3628726 0.75216687 66
31.008856 -0.4058556 0.67440379 102
30.994677 -0.3692621 0.56452948 84
31.25771 -0.64043802 1.0463138 74
31.155809 -0.61586863 1.0092297 77
31.118156 -0.59436607 0.97200441 78
30.965616 -0.51422697 0.58495903 79
30.956928 -0.6364271 0.63776487 67
30.943607 -0.60496908 0.55363619 23
31.207735 -0.87163305 1.0122825 75
30.997084 -0.74226409 0.82629341 68
31.148746 -0.84820616 0.98574269 70
32.901676 -0.53491205 1.4482044 1
33.064003 -0.36373511 1.4078863 1
32.375648 0.87978244 2.1451709 0
32.902714 -0.61197615 1.4374139 12
32.842484 -0.75726086 1.3491657 1
32.710381 -0.86316329 1.4802761 0
31.275146 -1.1017429 0.93624049 92
31.233675 -1.0847445 0.92803413 89
30.995401 -0.86542135 0.56717747 104
30.98189 -0.88387966 0.63731104 93
31.407631 -1.3211824 0.83779931 62
31.418566 -1.3345168 0.83217365 63
32.701439 -1.1086167 1.4596725 13
32.545452 -1.3548279 1.4991374 29
33.085323 -1.1065648 1.6313825 28
32.765694 -1.3256141 1.6146545 33
33.215225 -1.1954736 0.95359445 3
31.67144 -1.5604064 0.71489912 55
31.831833 -1.5787444 1.2017586 18
31.682312 -1.5714945 0.6833905 57
31.835938 -1.6299201 1.2102088 22
32.531227 -1.5395415 1.5683551 52
32.421135 -1.6021651 1.52727 48
33.459656 -1.1271421 1.7430809 27
32.294937 -1.7487004 1.5203489 41
31.812082 -1.8175 1.1962106 54
31.864416 -1.8393587 1.0631838 64
31.944115 -1.8044491 0.59187108 61
31.92926 -1.8093488 0.54314578 54
32.398693 -1.8438721 1.524562 25
32.540386 -1.9579284 1.2929608 0
32.272747 -2.0670497 1.0108539 72
33.223602 -1.3788899 1.8066623 14
32.174671 -2.0499759 0.80342478 61
32.998402 -1.6297872 1.871529 49
33.031429 -1.6645645 1.8772047 31
32.920841 -1.8710394 1.7798136 13
32.621403 -2.091857 1.4353392 3
32.711906 -2.0740066 1.7162511 21
32.468426 -2.1654055 1.178282 18
33.695221 -1.8826981 1.6174327 2
32.884232 -2.2866712 1.5090492 19
32.388863 -2.2636044 0.57498991 49
32.508522 -2.3152294 0.91409093 64
32.558544 -2.3739281 0.99758631 70
33.027931 -2.5913389 1.2805536 3
32.783112 -2.565743 0.80726314 61
32.774113 -2.5880549 0.76570529 59
33.021732 -2.7016678 1.1628842 35
33.921997 -2.139998 1.5294397 4
33.798214 -2.3898039 1.5688692 13
33.62019 -2.3619046 1.0625973 11
33.574604 -2.6253607 1.6040022 28
34.146748 -2.2213147 1.7033443 7
33.617016 -2.630599 1.6323522 21
34.050537 -2.4302824 1.5888216 18
33.017574 -2.8198881 0.71925676 34
33.289211 -2.8461738 1.1876364 70
32.96405 -2.8031759 0.53742743 18
33.143387 -2.9119556 0.96160406 69
33.4557 -2.8230987 1.4930559 32
33.534889 -3.0313108 1.3079692 18
33.509876 -3.1046853 1.1116065 64
33.803158 -2.8858306 1.5714426 24
33.374264 -3.126333 0.71436822 30
33.639771 -3.2381604 1.1120096 55
33.520794 -3.0897441 0.53053439 8
33.763344 -3.3683465 1.0281785 1
