# .PCD v0.7 - Point Cloud Data file format
VERSION 0.7
FIELDS x y z intensity
SIZE 4 4 4 4
TYPE F F F F
COUNT 1 1 1 1
WIDTH 85
HEIGHT 1
VIEWPOINT 0 0 0 1 0 0 0
POINTS 85
DATA ascii
31.716888 0.31884092 0.84439439 23
31.743807 0.32032761 0.67090303 16
31.635782 0.040006489 0.99514598 64
31.480986 0.084332302 0.90297502 56
31.541462 0.14927079 0.5733701 150
32.027542 0.20722732 1.0214163 40
31.36265 -0.12251072 0.92124045 60
31.306097 -0.14866273 0.94143605 56
32.103725 -0.24430832 1.0890422 42
32.363224 0.045646854 1.1106474 23
31.672848 -0.39861271 1.0697999 55
32.285725 -0.19570707 1.1102406 42
31.169888 -0.28402603 0.81594849 58
31.20417 -0.38054833 0.95664996 77
32.461948 -0.08304932 1.1355153 19
32.093487 -0.43071797 1.1573979 26
31.313154 -0.54694563 1.0246379 72
31.083879 -0.44553128 0.66616881 94
31.915871 -0.66353774 1.2017385 10
31.180239 -0.61303425 0.94214839 59
31.98435 -0.66921133 1.2159057 6
31.174797 -0.70179784 0.89057481 40
31.688803 -0.81484938 1.1394551 27
31.226524 -0.85014194 0.90516949 61
31.817192 -0.90005922 1.2213123 2
31.135031 -0.85655701 0.7172609 96
31.437803 -0.95845282 1.045121 70
32.772308 -0.53404874 1.1087489 1
32.897606 -0.3721202 1.2513448 3
31.342226 -1.0928805 0.84179717 68
31.357447 -1.1059854 0.88444126 79
31.830189 -1.1398073 1.2003056 1
31.492174 -1.264451 0.63550043 11
32.995022 -0.48531586 1.3766916 2
31.550304 -1.3422694 0.7460264 31
31.814268 -1.3782034 1.1951288 37
32.940941 -0.73080701 1.3732932 1
32.682472 -1.2106475 1.4357328 8
33.157219 -0.94576156 1.6947806 1
32.510918 -1.4425499 1.4877822 26
31.828709 -1.6210376 1.1810058 64
31.838434 -1.6020329 0.62008321 59
32.764652 -1.3796672 1.5924249 33
32.52935 -1.5839703 1.5544533 52
32.355915 -1.6800725 1.5376177 37
33.090313 -1.171253 1.5994667 40
32.162739 -1.8871357 1.0472364 62
32.343117 -1.7912769 1.4953924 28
32.52092 -1.9369086 1.4728255 18
33.414982 -1.2779107 1.7334973 15
32.34742 -2.1446519 0.97626376 70
33.151028 -1.5102329 1.8159417 24
33.18597 -1.5352271 1.9393264 3
33.046623 -1.7481173 1.8608013 21
33.092304 -1.7565112 1.8303087 11
32.548321 -2.2435672 1.1529689 21
32.675976 -2.192111 1.4157939 1
32.840767 -1.9504442 1.8037356 10
32.700176 -2.1563048 1.7223778 27
32.598419 -2.4105897 0.8807714 61
32.630798 -2.468864 0.98236668 64
32.943604 -2.3932869 1.4983653 18
33.818226 -2.0621538 1.5725722 2
33.402775 -2.5044343 1.1516849 0
33.127216 -2.7301717 1.2598548 8
32.866451 -2.6821332 0.78500044 65
32.842316 -2.7073641 0.7563864 65
33.919296 -2.3226612 1.5390227 9
33.107876 -2.8407738 1.1531804 57
34.15889 -2.1811094 1.8451724 1
33.074543 -2.9541678 0.71422982 22
33.801796 -2.5642951 1.583208 20
34.195545 -2.4047265 1.6948203 4
33.570042 -2.7860413 1.628188 29
33.349747 -3.0002024 1.1894188 68
33.208206 -3.0677955 0.96861446 68
34.007381 -2.6105719 1.6176451 11
33.587502 -3.0033221 1.4745413 16
33.564102 -3.2145469 1.3356674 5
33.386963 -3.3022938 0.75014371 32
33.854931 -2.8247144 1.5725447 20
33.58427 -3.2788701 1.1169565 38
33.486229 -3.2504144 0.56865466 15
33.81382 -3.0730026 1.5998896 12
33.764393 -3.4502904 1.1095051 7
