# .PCD v0.7 - Point Cloud Data file format
VERSION 0.7
FIELDS x y z intensity
SIZE 4 4 4 4
TYPE F F F F
COUNT 1 1 1 1
WIDTH 82
HEIGHT 1
VIEWPOINT 0 0 0 1 0 0 0
POINTS 82
DATA ascii
32.028931 0.15386537 0.65818501 18
32.129234 0.1627626 0.68764699 23
31.905582 0.0058675124 0.5840857 150
31.702785 -0.086472966 0.74392569 36
32.016014 -0.091188043 0.99391055 60
32.356823 0.065380044 1.0575343 15
32.355305 0.13588153 1.0816998 2
32.320103 -0.10650054 1.051067 42
31.732149 -0.24259417 0.90911806 50
32.149647 -0.34843704 1.0764751 54
31.512299 -0.32445875 0.78174984 33
31.512222 -0.3879852 0.79821378 29
32.016506 -0.58831239 1.092092 56
31.399017 -0.53394461 0.64390278 93
31.403753 -0.56220132 0.78780264 99
31.901941 -0.82568663 1.1038504 59
31.364828 -0.79682654 0.77043438 88
31.843374 -1.0644023 1.0968484 62
31.435707 -1.0375789 0.71203822 98
31.604979 -1.2791998 0.61862135 5
31.834507 -1.3050928 1.0748115 67
32.065479 -1.2645208 1.2174574 2
33.328785 -0.62518102 1.1515828 23
33.334145 -0.63875675 1.1390123 17
31.953411 -1.4726043 1.1216528 26
31.957771 -1.5484719 1.0068889 75
33.37207 -0.9951148 1.4940954 5
33.192509 -1.2099557 1.4222473 1
32.028625 -1.6855725 0.95316917 62
32.136055 -1.7985359 0.91950911 72
33.439217 -1.1512895 1.6090951 13
33.356514 -1.4003556 1.6137265 29
33.552593 -1.3840638 0.98021573 2
32.367233 -1.8156241 1.3058786 35
32.48888 -1.8337191 1.338426 32
32.191238 -1.9047896 0.74331504 66
32.205906 -2.0152566 1.2207652 42
33.177448 -1.6421657 1.6589566 13
33.092117 -1.7574508 1.6705705 10
32.349037 -2.0491979 0.82202798 71
32.838223 -1.9546223 1.6158305 20
33.642746 -1.3520365 1.7593802 0
32.519306 -2.238415 0.95396394 71
32.800289 -2.1569088 1.4840156 19
32.936531 -2.0981836 1.1580731 4
32.593437 -2.306473 0.71643192 65
32.792843 -2.3336585 1.2022275 15
33.202168 -1.8901502 1.632378 15
32.999363 -2.1238337 1.6919681 33
32.862953 -2.3664768 1.3115269 2
32.705002 -2.4555836 0.72874033 63
33.634544 -1.5696318 1.6210489 18
33.400974 -1.8936999 2.0497563 2
32.960667 -2.5772483 1.1216207 40
32.835724 -2.5695138 0.61353838 63
32.964767 -2.5921562 1.1311085 38
33.349854 -2.3032067 1.7745575 1
34.037605 -2.1357749 1.6842335 3
33.073437 -2.3731863 1.6576698 22
33.262836 -2.5031223 1.6524423 15
33.350334 -2.6403282 1.5530248 21
33.027412 -2.7843387 0.93872553 65
33.17561 -2.8553987 1.0498794 69
33.364105 -2.7110026 1.4625982 14
33.351673 -2.9133382 1.3065419 2
33.202663 -3.0027344 0.70901912 69
33.542957 -2.9052501 1.4817551 29
33.391632 -3.1247044 0.97048581 70
33.439411 -3.1231592 1.1119945 71
34.425232 -2.4883716 1.8971574 1
33.536942 -3.3292804 0.90966487 58
33.753456 -3.1741583 1.4100018 12
33.972469 -3.0695975 1.5755026 25
33.636028 -3.3972149 0.88269013 54
33.902138 -3.2626371 1.4344524 11
34.291737 -2.8907928 1.6268576 17
33.715603 -3.546581 0.67387623 23
33.936913 -3.4651175 1.255713 14
33.966335 -3.446696 1.3397514 8
34.641697 -2.7103987 1.667061 2
34.009109 -3.6692927 1.0599796 9
34.028149 -3.689074 0.74413943 4
