# .PCD v0.7 - Point Cloud Data file format
VERSION 0.7
FIELDS x y z intensity
SIZE 4 4 4 4
TYPE F F F F
COUNT 1 1 1 1
WIDTH 63
HEIGHT 1
VIEWPOINT 0 0 0 1 0 0 0
POINTS 63
DATA ascii
34.175594 -3.8273818 0.96529508 3
33.992664 -3.5946028 1.1856039 30
33.898014 -3.6993299 0.56203234 12
33.676205 -3.4656413 0.79765058 29
33.890507 -3.3729317 1.3695059 11
33.767555 -3.4169571 0.59922278 8
34.137238 -3.3173389 1.5211047 24
33.526936 -3.2360244 1.0009496 81
33.840801 -3.1516511 1.5335056 32
34.084797 -2.8363531 1.0846021 10
33.827477 -3.0524614 1.5692858 28
33.397854 -3.1344895 0.74440992 70
34.096916 -2.9528105 1.5849276 17
33.43644 -3.0121782 1.1786636 30
33.34457 -3.1157229 0.56674612 31
34.446556 -2.7559247 1.6047139 14
33.614613 -2.7960219 1.5881662 20
33.200523 -2.873199 0.83047014 67
33.174183 -2.8854563 0.77555287 61
34.694324 -2.6444933 1.759156 0
34.574574 -2.5375078 1.6995862 10
33.373241 -2.5391018 1.6206915 17
33.25988 -2.5647004 1.5184621 18
32.977711 -2.6516654 0.99007976 70
32.957752 -2.6085982 0.93351573 74
32.885883 -2.4267452 1.1598501 22
33.103958 -2.2177868 1.2106901 2
32.759369 -2.349896 1.0250688 75
33.136566 -2.3396878 1.6943898 22
33.125862 -2.2860167 1.65899 31
33.438831 -2.1321826 1.719125 18
33.057384 -2.0421708 1.6383082 12
33.590279 -1.9161296 1.7913793 33
33.629391 -1.8521668 1.9774321 2
33.904831 -1.7030871 1.8076314 5
33.111752 -1.8038403 1.5763265 38
32.725403 -1.9782982 1.4768198 34
33.018791 -1.7695391 1.4935147 27
34.025959 -1.6168369 1.8023148 4
32.471584 -2.0789332 0.60014886 65
32.389378 -2.0878041 1.1851758 37
33.274158 -1.553354 1.5231084 32
33.215824 -1.5617058 1.500255 28
33.543724 -1.3281784 1.5467588 24
32.366169 -1.8444322 1.2177998 25
32.246296 -1.8249273 0.71432459 65
32.278362 -1.6009057 1.2766039 1
33.433479 -1.0733553 1.355885 1
32.010998 -1.5767448 0.83329034 65
32.762543 -0.88088363 1.1989468 3
33.495789 -0.82944345 1.3051659 6
31.858681 -1.331266 0.92442 90
31.788195 -1.0918889 0.98807615 52
32.857944 -0.63965631 1.205786 8
33.070019 -0.3952395 1.1727794 10
31.806278 -0.85768592 1.0183501 74
31.54985 -0.84018993 0.57746786 29
31.882957 -0.62039036 1.0311881 66
31.616226 -0.60560066 0.5930481 90
32.039753 -0.38438833 1.0148456 65
32.246719 -0.14141083 0.98526859 62
32.652958 0.1053452 0.88184434 10
31.772528 -0.36864632 0.57578397 35
