# .PCD v0.7 - Point Cloud Data file format
VERSION 0.7
FIELDS x y z intensity
SIZE 4 4 4 4
TYPE F F F F
COUNT 1 1 1 1
WIDTH 59
HEIGHT 1
VIEWPOINT 0 0 0 1 0 0 0
POINTS 59
DATA ascii
33.765537 -0.76562858 1.2291729 1
33.906994 -0.94283193 1.1560266 4
33.999485 -1.0253747 1.1710589 5
33.854401 -1.2720356 1.2522782 0
33.410824 -0.37609291 1.1354023 7
33.289787 -1.1287792 1.2277358 1
33.187195 -0.58546007 1.0733987 41
34.125057 -1.283902 1.422461 3
33.883331 -1.4783516 1.3495086 0
32.806557 -0.78452772 1.068895 54
32.912701 -1.3173823 1.2139096 6
32.897118 -0.23719144 0.83399284 22
34.076492 -1.8093897 1.6109711 24
34.187927 -1.9045506 0.91205138 2
33.70607 -1.9863049 1.5766535 34
33.503925 -1.9924841 1.4848944 23
32.575905 -0.44574821 0.81301647 24
32.675171 -1.5059961 1.1459932 24
33.424213 -2.1634665 1.5119255 29
34.328163 -2.0772371 1.7891744 7
34.551395 -1.9561974 1.9391659 1
33.3923 -2.2297075 1.5686215 31
34.344776 -2.1416607 1.8424524 2
32.883053 -2.0202086 1.2269509 42
32.338211 -0.64959729 0.76290041 54
32.303951 -1.1754056 0.96110857 61
32.201122 -0.85241199 0.66887122 80
33.997364 -2.3097091 1.7947704 22
33.992622 -2.3035252 1.9468633 9
32.268681 -1.3748018 0.82179004 106
32.57428 -1.7003996 1.0237874 75
32.122997 -1.0551554 0.54907656 23
33.248692 -2.3415678 1.4069858 20
33.798336 -2.4871168 1.6939026 18
33.447124 -2.4740124 1.5933688 22
33.393677 -2.5438159 1.184356 3
32.780083 -2.20665 1.1000248 74
32.608158 -1.9000528 0.84880513 70
33.526859 -2.6532264 1.6180613 23
32.34325 -1.5789994 0.63208109 7
32.747746 -2.1036282 0.62863851 70
32.954727 -2.4108226 0.86345357 82
33.563786 -2.727339 1.6030805 25
33.564648 -2.8441868 1.4295459 4
33.232655 -2.7181928 1.0693753 59
33.090763 -2.6119645 0.64005232 73
34.856403 -2.6154108 1.7038934 0
33.793766 -2.9894264 1.5760105 22
33.542107 -3.0270445 1.2608584 5
33.977615 -3.253583 1.5693034 25
35.107319 -2.8900409 1.6725286 0
33.306381 -2.9136515 0.86427397 73
33.438107 -3.1123972 0.63473713 67
33.579689 -3.2127309 1.0682032 70
34.198757 -3.5202043 1.5528712 23
33.657875 -3.4027855 0.85670269 76
35.069759 -3.1376836 1.7421654 1
33.748184 -3.5917358 0.63581759 18
34.442837 -3.7928281 1.5336064 28
