# .PCD v0.7 - Point Cloud Data file format
VERSION 0.7
FIELDS x y z intensity
SIZE 4 4 4 4
TYPE F F F F
COUNT 1 1 1 1
WIDTH 76
HEIGHT 1
VIEWPOINT 0 0 0 1 0 0 0
POINTS 76
DATA ascii
33.877056 -0.49395028 0.68600255 23
33.89407 -0.8663736 1.0428416 43
33.394657 -0.71763164 0.72761184 33
34.153934 -0.78387588 1.1115097 10
33.351532 -0.73121428 0.84137201 21
34.104729 -1.0382479 1.090681 31
33.489143 -1.0685564 1.0474248 45
33.096531 -0.92494357 0.69911826 69
33.96648 -1.2869036 1.1065447 40
33.087902 -0.97115636 0.90340233 57
34.431461 -1.2385566 1.2086862 3
34.160954 -1.4448068 1.1533147 13
33.161358 -1.2670683 1.0224754 64
32.929234 -1.1332397 0.61571711 52
33.680931 -1.5249112 1.1794636 16
32.986816 -1.2153453 0.90742815 50
33.63586 -1.6272426 1.1891575 12
32.988258 -1.4703939 0.93744308 83
32.949463 -1.4612122 0.89065415 59
33.585178 -1.7671984 1.1893098 1
33.308575 -1.8169597 1.1536525 23
32.952747 -1.6773095 0.79679251 94
32.967415 -1.7087196 0.85734957 98
34.786564 -1.6312944 1.3242372 3
33.199192 -2.0153375 1.0374231 77
34.74704 -1.8205808 1.2919723 6
34.710842 -1.8803513 1.3960993 11
33.055252 -1.9646502 0.80066699 70
33.012115 -1.8906143 0.61689633 6
33.392277 -2.2576456 1.2187276 33
33.207691 -2.218864 0.87384868 79
33.181515 -2.2219746 0.73187339 84
33.438721 -2.3466473 1.2777294 30
34.656857 -2.125622 1.4653342 9
34.770527 -2.154711 1.6260746 3
34.505421 -2.3416851 1.5556611 35
34.48708 -2.3629777 1.5761719 34
33.294804 -2.4314623 0.6753118 83
33.304367 -2.502677 1.2358514 35
33.327148 -2.4863436 0.66221023 84
33.281925 -2.5342183 1.1717395 66
34.107113 -2.5112939 1.5292464 36
33.742569 -2.6802363 1.4908881 43
34.526154 -2.6114898 1.6179814 5
33.460842 -2.7479525 0.93884611 89
33.612186 -2.7787378 1.1124822 33
33.451088 -2.747607 0.60129714 83
34.021782 -2.9045408 1.2235781 5
33.539555 -2.9550529 0.73728734 86
33.651653 -3.0324082 1.0911793 63
33.705315 -3.0703881 1.1653712 22
33.576717 -3.0107746 0.5451299 70
34.083401 -3.0154521 1.6902493 21
34.374432 -2.8439479 1.729215 28
34.402771 -2.849138 1.7518277 36
34.853462 -2.6892493 1.7677238 8
33.714664 -3.2668972 0.98703253 86
33.628014 -3.1627629 0.52801245 60
33.759789 -3.296875 1.0478725 84
34.889183 -3.1414647 1.6170138 2
33.975735 -3.1971989 1.5547986 23
34.000706 -3.3902476 1.3744069 0
33.788872 -3.4646819 0.78449285 79
33.986385 -3.5768321 1.2032018 16
33.875511 -3.560786 1.0056777 84
35.167305 -3.4202979 1.5913805 2
33.970345 -3.7636614 1.0293446 80
33.863144 -3.6652353 0.57576233 67
34.000973 -3.830766 0.96305788 86
34.013386 -3.9560122 0.82974321 83
35.254955 -3.677783 1.6329648 18
34.11591 -4.1023159 0.92734522 88
34.095852 -4.1523137 0.61159116 9
34.254322 -4.3769054 0.88965327 80
35.447582 -3.9490619 1.6430721 2
34.445915 -4.6606464 0.83295774 68
