# .PCD v0.7 - Point Cloud Data file format
VERSION 0.7
FIELDS x y z intensity
SIZE 4 4 4 4
TYPE F F F F
COUNT 1 1 1 1
WIDTH 63
HEIGHT 1
VIEWPOINT 0 0 0 1 0 0 0
POINTS 63
DATA ascii
30.389259 -0.65588272 0.67632675 21
30.520214 -0.51412743 0.71620548 34
30.203459 -0.72842515 0.78868943 27
30.540386 -0.52863783 0.81236339 46
30.774694 -0.39836991 0.9131608 55
30.50676 -0.74958646 1.1819059 10
29.969971 -0.94104254 0.83315927 89
30.412563 -0.96958137 1.1662072 18
30.725834 -0.53051615 1.1525211 9
30.885521 -0.29896101 0.62790209 53
30.379164 -1.1939912 1.1284304 51
30.741899 -0.30557618 1.2093031 74
30.860586 -0.25971314 1.076507 62
29.827461 -1.1581397 0.84145087 55
31.065521 -0.17714535 0.55175221 32
30.332241 -1.4186236 1.0993654 61
29.78459 -1.3797611 0.81026417 126
31.197536 -0.074902646 0.56587189 49
30.288906 -1.6425904 1.0724553 62
31.304562 -0.036591969 0.65121484 44
31.277168 -0.12604438 1.1047491 28
31.281418 -0.088289127 1.0609051 66
29.762846 -1.6017791 0.77458227 71
30.261818 -1.8660568 1.0433555 62
29.830652 -1.8296739 0.70414376 70
30.930937 -1.7137926 1.2141358 4
31.521763 0.11122255 0.7583943 45
30.857817 -1.90713 1.0965352 38
31.551811 0.014548655 1.1907568 13
31.542776 -0.93258846 1.5295367 31
30.052523 -2.0738952 0.56974989 150
31.573612 0.13388276 1.0144188 65
30.24501 -2.0912988 1.0115803 63
30.582853 -2.0828323 1.0595204 36
31.600761 -0.72565484 1.6375343 23
31.753622 0.26341724 0.86066449 45
31.826704 0.16222028 1.2797357 1
31.819263 -0.52452433 1.6828938 28
31.908253 0.3625181 0.95779526 56
30.421562 -2.2628167 0.97624856 47
30.387276 -2.3329573 0.91867679 15
31.956593 -1.1612222 1.2372465 2
31.942926 -0.31251973 1.7633146 4
32.031963 0.41918084 0.94556481 52
30.604012 -2.4721045 0.74641126 14
31.834837 -1.8865696 1.3305852 11
31.975525 -1.487834 1.5671268 1
32.03006 -1.2852355 1.6864048 2
32.23061 0.59213763 0.91161567 70
32.063473 -0.66041458 2.070926 0
32.251968 -1.0869379 1.7422695 15
32.418602 0.31254876 1.2484928 0
32.31464 0.58011311 1.0272181 69
32.517189 0.47162557 1.4052252 27
32.59642 0.824498 0.85196626 32
32.658276 0.74388814 1.0856459 63
32.729004 0.85559487 0.59472024 17
32.912006 -0.11535954 1.5326365 7
32.905647 0.63425183 1.4519359 26
33.049049 0.10805142 1.6053147 28
32.995094 0.91421634 1.1478689 8
32.9692 1.0312731 0.6925239 1
33.201515 0.33211237 1.6687828 2
