# .PCD v0.7 - Point Cloud Data file format
VERSION 0.7
FIELDS x y z intensity
SIZE 4 4 4 4
TYPE F F F F
COUNT 1 1 1 1
WIDTH 91
HEIGHT 1
VIEWPOINT 0 0 0 1 0 0 0
POINTS 91
DATA ascii
30.083445 -3.1051896 0.87642944 11
30.090536 -2.9402847 1.0483226 30
30.365248 -2.8065696 1.1089665 20
30.386477 -2.8136845 1.1117175 16
29.633278 -2.9799721 0.61834455 21
30.355259 -2.5799255 1.1092402 36
29.516069 -2.797554 0.84542918 29
29.799982 -2.4938719 1.0660118 52
29.557138 -2.6362433 0.99914205 60
30.63386 -2.6681645 1.174281 8
30.091974 -2.353044 1.1138191 37
30.175978 -2.3307235 1.1702565 16
29.337376 -2.5372646 0.6488272 150
30.207275 -2.1906371 1.233614 4
30.086887 -2.0946407 1.1984267 4
29.224573 -2.3525043 0.86647344 50
29.304075 -2.1886919 0.9997701 77
31.130499 -2.5503261 1.1469214 12
29.147415 -2.3693345 0.61180121 75
29.523779 -2.0368354 1.0705777 70
29.774206 -1.8832818 1.1271284 54
29.984407 -1.8605685 1.2342504 0
31.040506 -2.3625336 1.3534089 3
31.140381 -2.4485188 1.326717 9
29.107046 -2.144392 0.67172951 81
29.124741 -2.0920858 0.63268167 55
31.083401 -2.2103493 1.3381968 3
29.911547 -1.7166938 1.2297564 3
29.172186 -1.9197999 0.77535617 82
29.110277 -1.9253274 0.71613646 97
29.313654 -1.7553532 0.87588274 58
29.251141 -1.7199805 0.70287621 84
29.501657 -1.5907211 0.95285058 79
31.166098 -2.1959536 1.4715204 4
30.922752 -1.7294576 1.3919643 2
30.95388 -1.7195328 1.4220029 8
31.243389 -2.0235152 1.6074116 2
31.070024 -1.6299363 0.91658884 4
30.731985 -1.4841934 1.4663476 19
29.949627 -1.4057467 1.2479687 1
30.955709 -1.5325598 1.5796409 42
29.526108 -1.5230631 0.63490397 6
29.731651 -1.4251153 1.0136497 75
29.876169 -1.3303106 0.54005599 15
29.9713 -1.2573172 1.068805 29
31.375277 -1.8541909 1.7155868 2
31.15863 -1.4464982 1.04015 2
30.607338 -1.24509 1.518283 30
30.535637 -1.2121019 1.4448653 7
30.058792 -1.1901194 1.2067689 11
30.087 -1.0777206 1.1718575 67
31.583197 -1.8079634 1.6805155 10
31.471155 -1.5617677 1.7218741 17
30.061199 -0.96337003 1.2141323 63
30.218344 -0.89373648 1.2697511 13
30.601089 -1.0181835 1.5289481 28
30.643286 -1.0292048 1.5520747 49
31.214777 -1.3640463 1.6369447 15
31.647593 -1.6912764 1.7746212 10
30.515223 -0.76148653 1.0403229 70
31.247526 -1.3113598 1.8079323 30
31.240936 -1.1756123 1.7799314 27
30.739439 -0.73256135 1.2057604 6
30.873581 -0.80002373 1.4325581 2
30.896469 -0.85134059 1.602594 58
31.341404 -1.0881262 1.7789602 6
30.764948 -0.54421312 0.95299917 64
31.824093 -0.87860417 1.6079367 4
31.151741 -0.67289203 1.6494638 26
31.008209 -0.54896802 1.2438966 2
31.484957 -0.49075785 1.6665957 14
31.241228 -0.3618181 1.2934408 1
32.215195 -1.0446446 1.5685021 9
31.047224 -0.32305446 0.85609704 54
32.082954 -0.65360671 1.5254148 6
32.436829 -0.85669047 1.63963 22
31.605185 -0.17073958 1.2942021 15
31.306025 -0.099041581 0.77256215 67
31.538118 -0.12986341 1.2246948 73
32.013294 -0.41027915 1.5691267 23
31.98798 -0.31157592 1.6206706 26
32.022167 -0.17345351 1.5850793 26
31.881069 0.027781058 1.3272871 63
31.782528 0.099807627 1.1552316 79
31.683558 0.12825966 0.6455102 7
32.172699 0.063255057 1.5535996 25
32.362679 -0.11846012 1.6237756 12
32.759987 -0.67201918 1.6686879 1
32.172039 0.22969452 1.352265 2
32.055962 0.33256558 1.0781546 22
31.911198 0.36040419 0.58249313 19
