# .PCD v0.7 - Point Cloud Data file format
VERSION 0.7
FIELDS x y z intensity
SIZE 4 4 4 4
TYPE F F F F
COUNT 1 1 1 1
WIDTH 84
HEIGHT 1
VIEWPOINT 0 0 0 1 0 0 0
POINTS 84
DATA ascii
31.227255 -0.23015328 0.74540532 35
31.100214 -0.36541292 0.88575566 58
30.906002 -0.44816902 0.84395117 54
30.863165 -0.50295758 0.79029 32
31.408669 -0.25839373 1.2128216 7
31.247576 -0.46169183 1.2703894 16
31.132629 -0.4797897 1.2881708 19
30.980927 -0.5953033 1.1857595 80
30.702627 -0.64250737 0.66342336 9
30.672451 -0.66602033 0.91125679 83
30.731155 -0.72717446 1.0904984 78
30.945051 -0.70100695 1.3351809 66
30.514713 -0.85414571 0.98545527 79
30.446436 -0.88445091 0.97866112 70
30.742308 -0.92142814 1.3892634 17
31.595776 -0.76184613 1.6167768 12
30.353397 -0.97957683 0.85872829 67
31.293232 -0.97987962 1.7062865 33
30.565229 -1.1406667 1.4376503 2
30.217575 -1.1056163 0.72016108 64
31.560503 -1.2322638 1.5857334 26
30.221554 -1.0997312 1.0488554 77
30.058922 -1.2283145 0.58962655 59
30.400045 -1.357543 1.4849813 23
31.616547 -1.4755247 1.5473334 15
31.862888 -1.2061577 1.6976646 0
31.697515 -1.4074411 1.6281635 11
30.022213 -1.3107003 1.1113062 69
31.559645 -1.6069721 1.54835 10
29.957809 -1.2958056 0.60917151 62
31.421446 -1.6957185 1.6066468 6
31.089426 -1.7689023 1.5936556 2
29.85405 -1.5234283 1.166634 26
29.724831 -1.5031868 0.69488961 58
30.122599 -1.5608114 1.5812916 36
30.67215 -1.8573983 1.8821669 2
30.00396 -1.7772893 1.6174648 26
30.400192 -1.9070022 1.7230896 23
29.499243 -1.7080171 0.77865958 60
29.60462 -1.7260995 1.2576722 11
30.621561 -2.0829241 1.8933223 7
30.406042 -2.2627704 0.91166514 6
30.035456 -2.0067768 1.5968031 50
30.231945 -2.0873165 1.6511452 8
29.477381 -1.9374574 1.3012447 20
30.923742 -2.2634037 1.841867 0
30.14493 -2.2443266 1.5495524 47
30.905155 -2.3438711 1.7840364 8
29.28611 -1.9083287 0.86121446 68
30.842581 -2.449466 1.731636 16
30.071787 -2.2648892 1.5760355 51
30.295588 -2.4895351 1.4884509 22
30.092764 -2.4617925 1.4246323 6
30.296892 -2.480778 0.95466322 1
30.620758 -2.6193931 1.6726424 7
29.088219 -2.109616 0.94081622 62
30.521374 -2.7433953 1.4015089 0
30.526941 -2.802732 1.5605448 8
28.93005 -2.313668 1.0048614 77
30.464148 -2.965915 1.429895 3
30.454308 -2.9835386 1.4387536 5
30.351755 -3.1614001 1.3258178 5
30.633911 -3.2177556 1.3720888 0
29.729349 -3.0851524 1.2042024 1
29.536694 -2.9637713 1.2086307 0
28.814623 -2.516943 1.0556393 68
28.790775 -2.7312515 1.0690445 61
29.341484 -3.1248946 1.1374596 29
30.258873 -3.3371167 1.2072383 6
29.931799 -3.3380067 1.1295693 27
29.955439 -3.4752541 1.1756786 11
28.819485 -2.9548001 1.0625237 58
29.863316 -3.5542054 1.1722467 3
28.875267 -3.1818812 1.0478961 52
29.096489 -3.2732399 1.0875391 51
29.705765 -3.6201041 1.1186994 23
28.951036 -3.4128931 1.0259842 51
28.849157 -3.4159038 1.0371734 53
29.444696 -3.7582743 1.0677744 33
28.746775 -3.5794497 0.92412794 48
29.072472 -3.6517503 0.99111319 48
28.822624 -3.7717695 0.72835445 26
29.216955 -3.8954809 1.0039833 18
29.453669 -3.9368608 0.84500325 2
