# .PCD v0.7 - Point Cloud Data file format
VERSION 0.7
FIELDS x y z intensity
SIZE 4 4 4 4
TYPE F F F F
COUNT 1 1 1 1
WIDTH 63
HEIGHT 1
VIEWPOINT 0 0 0 1 0 0 0
POINTS 63
DATA ascii
28.860678 -4.1556849 0.77141041 18
28.647907 -4.0323014 0.80036193 31
28.796398 -3.965085 0.95842654 47
28.956459 -3.8125145 1.0466709 50
29.26096 -4.1242323 1.0571256 18
29.226645 -3.8967371 1.067524 36
28.477333 -3.7868152 0.87421101 24
29.162464 -3.6679759 1.0940017 47
29.203274 -3.6688354 1.0957285 43
28.364408 -3.5538573 0.92375821 51
29.122601 -3.4420776 1.1141332 50
29.439259 -3.5193934 1.1486111 24
28.348629 -3.3369114 0.93558395 61
29.05197 -3.2129719 1.1485002 27
28.354313 -3.1222868 0.93870497 57
28.979902 -2.9803314 1.1883856 11
29.764645 -3.3784082 1.1647105 0
28.437359 -2.9138799 0.91334754 101
30.076838 -3.5789738 1.2364187 2
28.931963 -2.7556574 1.2209778 2
28.555029 -2.7129521 0.87277889 76
28.986147 -2.5447936 1.212464 8
28.7407 -2.5183403 0.80825055 59
30.102512 -3.3547223 1.2311331 2
29.091339 -2.3368995 1.1864814 9
30.425449 -3.5480981 1.349594 0
30.099506 -2.8452559 1.4700336 15
28.969387 -2.3252342 0.72523302 66
29.637499 -2.3989522 1.4708767 18
30.1192 -2.6542325 1.6030151 30
30.291344 -2.6954074 1.1871388 2
29.072027 -2.1154106 1.2167704 69
29.174284 -2.1254942 0.65770036 72
29.541224 -2.1671174 1.5305442 51
30.413347 -2.9410338 1.6470077 5
30.554876 -2.730994 1.6042596 25
30.420462 -2.4898007 1.6231917 10
30.407362 -2.4879637 1.6793274 20
29.438351 -1.9284483 1.0853598 70
29.366581 -1.9195963 0.59962207 69
29.732641 -1.9616033 1.4768343 16
30.199581 -2.2400906 1.7784077 61
30.305571 -2.2786753 1.8036637 25
29.615982 -1.723073 1.0393949 87
29.841995 -1.7471485 1.4600514 1
29.567507 -1.7159492 0.54033488 53
29.818518 -1.5162481 0.98483181 76
30.236795 -2.0172029 1.7876855 6
30.031275 -1.3073349 0.93067861 74
30.888832 -2.1357236 1.7129501 2
31.193626 -1.9561565 1.7310538 1
30.949699 -1.6217694 1.5681186 3
30.487709 -1.1191159 1.3028682 54
30.243336 -1.0937001 0.88183951 86
30.984703 -1.3937621 1.5893083 18
31.377661 -1.7635953 1.7910166 13
31.099005 -1.1705753 1.5825342 24
30.426926 -0.87840158 0.8466469 65
30.673695 -0.90338862 1.2691116 89
30.900576 -0.68583089 1.2236001 26
30.681141 -0.66173685 0.78778416 54
31.154497 -0.94232309 1.6014589 17
31.04298 -0.44959503 0.68837053 19
