# .PCD v0.7 - Point Cloud Data file format
VERSION 0.7
FIELDS x y z intensity
SIZE 4 4 4 4
TYPE F F F F
COUNT 1 1 1 1
WIDTH 85
HEIGHT 1
VIEWPOINT 0 0 0 1 0 0 0
POINTS 85
DATA ascii
29.623579 -1.8594053 0.99980646 72
29.68047 -1.7559024 1.0048136 1
29.575243 -1.9126945 0.87640607 66
29.427555 -2.0595467 1.0484844 88
29.69665 -1.9997715 1.2649621 25
29.474205 -2.1390069 1.1836529 94
29.375172 -2.0561879 0.78823549 44
29.954504 -1.8597577 1.3328604 0
29.707144 -2.089704 1.4427546 22
30.002329 -1.8949504 1.3567816 2
29.276102 -2.2777872 1.0907983 87
29.252968 -2.2641537 1.090551 91
29.263977 -2.2069798 0.65824175 6
29.734455 -2.2385247 1.51114 30
29.532047 -2.2943265 1.4828862 27
29.450169 -2.3629465 1.4521158 28
29.184614 -2.2597713 0.60602129 4
29.900896 -2.0957594 1.6194924 0
29.088987 -2.4111428 0.99605733 89
29.296167 -2.4988999 1.3404566 29
29.082874 -2.4688952 1.1335089 73
29.357719 -2.4989262 1.5259197 52
28.975382 -2.4602177 0.66849798 83
29.670658 -2.605237 1.6184446 23
29.068083 -2.6229103 1.2584411 8
28.932646 -2.5465407 0.88397509 81
30.153929 -2.5078545 1.6038644 16
28.936398 -2.670615 1.1723291 40
29.21262 -2.7002449 1.5623066 25
29.277443 -2.708097 1.6012155 24
28.875166 -2.7461486 1.1620471 48
28.803951 -2.6594534 0.71899962 71
28.809811 -2.6815717 0.7589801 76
29.076281 -2.8249557 1.5069311 18
29.862967 -3.0661104 0.99883676 6
29.046415 -2.8972692 1.6103909 27
28.764008 -2.8639736 1.2240721 12
28.68058 -2.8637085 1.0681111 81
28.675158 -2.8120308 0.63704586 74
28.610319 -2.852639 0.78250754 77
28.7344 -3.0633278 1.2911985 0
28.62591 -3.063031 1.2648133 1
28.5107 -2.9837568 0.96152532 78
28.795933 -3.080683 1.694913 26
28.879459 -3.3125889 1.1413646 0
28.423359 -3.0433893 0.84528375 77
28.49789 -3.1656659 1.2112286 12
28.393345 -3.1071734 0.83087367 74
28.83816 -3.3015132 1.6637954 17
28.33231 -3.2754762 1.1013744 59
28.251701 -3.2339563 0.90611869 82
28.282804 -3.2289541 0.69532585 73
28.766417 -3.5072842 1.6820424 7
28.891209 -3.7415097 1.624236 24
28.157064 -3.3440282 0.56784219 61
28.166368 -3.3823457 0.99262381 78
28.094734 -3.4263239 0.9610526 82
29.082104 -3.997169 1.0251802 6
29.002659 -3.975683 1.571991 49
28.046938 -3.4908791 0.86240655 76
28.213148 -3.6453969 1.405133 25
27.9618 -3.617626 1.0117573 76
27.940285 -3.6004653 0.72368145 72
27.8319 -3.8092847 1.061668 81
27.825869 -3.7058074 0.591093 62
29.194887 -4.2266121 1.4914836 17
27.833111 -3.8261099 0.55080956 16
27.733326 -4.0031486 1.1002909 55
29.241615 -4.4532189 1.4726681 4
27.723091 -4.2109504 1.1055527 59
27.550325 -3.9895489 0.67775315 6
27.737309 -4.4224124 1.1003029 59
27.369251 -4.1697531 0.75958484 56
28.990097 -4.8512769 1.0701046 3
27.773657 -4.6381431 1.0872254 54
27.280466 -4.3617172 0.80080116 104
28.756626 -5.0190735 1.1800331 4
27.240929 -4.5578613 0.82088315 48
27.837851 -4.8559113 1.0658367 51
27.272539 -4.7697067 0.81314933 85
27.90103 -5.0781851 1.0488825 49
27.328615 -4.985208 0.79490405 36
27.990269 -5.3058619 1.0220447 42
27.504858 -5.2266808 0.72574955 51
27.851675 -5.5100784 0.57916683 15
