# .PCD v0.7 - Point Cloud Data file format
VERSION 0.7
FIELDS x y z intensity
SIZE 4 4 4 4
TYPE F F F F
COUNT 1 1 1 1
WIDTH 105
HEIGHT 1
VIEWPOINT 0 0 0 1 0 0 0
POINTS 105
DATA ascii
27.509108 -5.8340793 0.88961589 24
27.663691 -5.8728156 1.0047476 17
27.614502 -5.7159567 1.0103793 40
27.539543 -5.6468358 1.0311446 43
27.335722 -5.8371906 0.63316393 52
27.164946 -5.6101489 0.78132117 21
27.434998 -5.4241467 1.0483226 48
27.895823 -5.631752 1.0504216 30
27.149967 -5.4635773 0.95490777 46
27.328438 -5.3527017 1.0401105 51
27.055847 -5.5775986 0.73603672 23
27.598879 -5.2557149 1.0828304 46
27.332644 -5.204298 1.0711676 51
26.960394 -5.4109035 0.61202085 47
28.166267 -5.5421977 1.0984076 22
26.898436 -5.3448272 0.78344965 49
27.888275 -5.1581078 1.1174817 33
26.913591 -5.2498546 0.80304366 78
26.977966 -5.1109204 0.93633181 62
27.262539 -4.9877143 1.0804502 57
28.391851 -5.5942793 1.14449 1
27.100456 -4.9820671 1.0431794 70
26.839705 -5.1367035 0.78780264 67
28.353666 -5.3786464 1.1330292 16
28.370775 -5.4322238 1.176811 5
27.350845 -4.8724127 1.0899445 62
28.042585 -5.032722 1.2129498 1
26.822754 -5.0620303 0.57933772 23
28.353802 -5.1731296 1.1085786 1
27.214363 -4.7811961 1.0830956 62
27.559504 -4.752728 1.1567959 22
26.812756 -4.9330301 0.77976352 70
26.845196 -4.9089622 0.73167807 92
26.949312 -4.7703104 0.84630311 79
26.866798 -4.7439861 0.73522508 97
27.070692 -4.6313043 0.9502061 90
27.212061 -4.5745516 1.066504 76
27.235249 -4.496789 1.0325352 78
26.997713 -4.5624452 0.65723538 5
27.277893 -4.3827534 1.0209104 91
27.401461 -4.3608479 1.1144118 40
28.768917 -5.0221286 1.430095 1
27.197248 -4.3945589 0.54907191 4
27.56172 -4.2172403 1.2008467 45
27.395443 -4.1967077 0.9566974 69
27.727533 -4.0730796 1.2806545 57
27.527519 -4.0101848 0.88764185 83
27.768892 -4.0320034 1.2858316 29
28.947847 -5.076417 1.4263852 0
28.819174 -4.818686 1.3884246 4
28.643871 -4.5770774 1.4445372 6
28.421679 -4.3277669 1.5231528 29
28.696884 -4.3858871 0.8885411 2
28.331394 -4.2187567 1.4502317 13
27.932835 -3.9313607 1.3429248 14
28.290354 -4.0970597 1.5668722 54
27.67881 -3.8230286 0.81148428 79
28.776501 -4.5110984 1.5402582 30
27.688599 -3.8094122 1.314242 4
29.058044 -4.5045295 0.9806639 2
28.354328 -4.050796 1.5939764 52
28.205105 -3.8724818 1.5944818 30
28.947851 -4.3680859 1.6279339 19
28.094477 -3.7820408 1.4237537 4
27.855888 -3.6367846 0.7275601 72
27.996944 -3.6428194 1.1745275 14
28.596643 -3.9123654 1.6445427 6
28.248646 -3.6684051 1.5721349 43
29.10494 -4.2130995 1.7408904 10
29.146494 -4.2294879 1.7023244 15
28.271112 -3.6289041 1.4964763 24
28.773624 -3.9498913 1.8654419 21
28.107998 -3.4465454 1.1232481 54
28.010599 -3.4459617 0.65562898 74
28.250025 -3.2510054 1.0638767 82
28.385429 -3.4750161 1.5110625 20
28.424143 -3.4702671 1.5773678 25
28.186453 -3.2552152 0.57920259 66
28.928551 -4.0227184 1.9426863 2
28.749205 -3.7602003 1.7297781 21
29.061836 -3.7752936 1.7412282 7
28.404932 -3.0564156 1.0001159 78
28.641937 -3.3181446 1.6320999 21
28.575836 -2.8579562 0.93211788 79
28.896919 -3.1638341 1.6688036 7
28.942751 -3.1114962 1.2798462 0
29.412067 -3.6672618 1.609936 2
29.433392 -3.6048203 1.5869957 2
29.395792 -3.3800316 1.6021398 2
29.712952 -3.5245597 1.6368541 12
29.558559 -3.1784997 1.5382987 10
29.84915 -3.3529112 1.7302471 19
29.343624 -2.9343722 1.6316206 24
29.462406 -3.0413473 1.5812844 12
28.955715 -2.6736753 1.2913586 88
28.723249 -2.6553364 0.87951344 87
29.489559 -2.8542709 1.7102369 36
28.901371 -2.4513135 0.81575686 44
29.483871 -2.7274654 1.5839359 27
29.097408 -2.4665165 1.2453598 89
29.09774 -2.2500222 0.7462275 49
29.286345 -2.2640872 1.1808634 62
29.494419 -2.5077209 1.5917219 23
29.932001 -2.704812 1.6721237 1
29.370699 -2.0493526 0.64840305 22
