# .PCD v0.7 - Point Cloud Data file format
VERSION 0.7
FIELDS x y z intensity
SIZE 4 4 4 4
TYPE F F F F
COUNT 1 1 1 1
WIDTH 98
HEIGHT 1
VIEWPOINT 0 0 0 1 0 0 0
POINTS 98
DATA ascii
26.573671 -5.1462407 0.64822924 34
26.651609 -5.0492187 0.78771943 63
26.630297 -5.0928893 0.8673138 98
26.567087 -5.275939 0.90403873 23
26.738115 -4.9148688 0.80968809 52
26.780893 -4.9595361 0.90147847 82
26.547401 -5.4665909 0.92535543 48
26.91893 -4.8610954 0.58692867 4
26.919342 -4.7449269 0.72057533 40
26.946062 -4.7431774 0.75077718 45
26.9345 -4.8718987 1.0047729 79
26.563457 -5.6635737 0.93121183 65
27.090212 -5.1447062 1.1540277 17
27.055115 -4.9415326 1.1623646 13
27.069904 -4.6385708 0.86988372 64
27.067034 -4.5683517 0.6515103 65
26.620884 -5.8696227 0.920178 43
27.083923 -4.779119 1.1090884 50
27.191181 -5.3640823 1.1183574 38
27.091141 -4.7461195 1.1429095 62
27.160168 -4.5079551 0.57356656 60
27.26115 -5.5739956 1.0989282 48
27.198835 -4.5314403 0.98245364 81
27.21736 -4.5658207 1.0845755 45
27.229465 -4.6823468 1.2184979 51
26.782032 -6.0955791 0.86472648 20
27.243052 -4.3928804 0.57195115 70
27.27569 -4.3910933 0.69674158 74
27.333727 -5.7875276 1.0819683 45
27.215649 -4.361764 1.0872701 81
27.250504 -4.4112525 1.132619 64
27.385498 -4.5838237 1.3210019 52
27.387939 -4.2698469 0.81967509 75
26.995007 -6.3361058 0.78662509 15
27.416624 -6.0026317 1.0623345 40
27.334435 -4.2910519 1.2681406 22
27.447332 -4.1938434 0.9860239 82
27.593273 -4.6054025 1.4147935 12
27.512758 -4.1514821 0.9352259 83
27.529636 -4.4790683 1.4285929 48
27.580795 -4.397831 1.4202542 19
27.511961 -6.218833 1.0404946 30
27.602491 -4.0075364 0.9221018 77
27.699524 -4.3770828 1.5263907 52
27.654263 -4.0289593 1.0453227 86
27.642067 -3.9913607 0.62104028 71
27.763529 -3.8595684 0.740381 70
27.89678 -4.2742848 1.6118499 22
27.82028 -3.9073033 1.1428159 47
27.772457 -3.8228214 0.85639691 76
28.172121 -4.2800035 1.0685375 1
27.936665 -4.0362887 1.2734194 0
27.892664 -3.7267163 0.85356307 73
27.923691 -3.8241785 1.2892797 3
27.947847 -3.6357439 0.78924251 69
28.225811 -5.7366223 1.1807905 5
28.316061 -5.5525956 1.1266416 1
28.019287 -3.9762864 1.4804387 13
28.009022 -3.7840195 1.231243 9
28.132246 -4.1712332 1.6852434 16
28.034204 -3.5906634 0.96035331 78
28.111015 -3.6413612 1.2190641 16
28.651325 -4.9880466 0.95437843 7
28.198166 -3.8565094 1.5725291 30
28.121929 -3.4461434 0.72756004 75
28.308495 -4.0603828 1.7791827 3
28.193964 -3.4561005 1.0582654 80
28.180855 -3.4030566 0.62883258 72
28.258501 -3.4462602 1.1704627 56
28.261765 -3.2479777 0.68504965 58
28.399355 -3.7343228 1.6587503 18
28.309145 -3.2549348 0.74098396 85
28.377151 -3.3187044 1.1469073 68
28.400898 -3.2505493 1.1273173 88
28.433853 -3.1075499 0.85098034 76
28.582251 -3.4007864 1.4872626 21
28.584646 -3.1812031 1.2229913 87
28.945402 -3.6521568 1.6005614 3
28.504486 -3.0575852 0.59816957 5
28.570511 -3.0532279 1.0759974 82
28.595306 -2.9580185 0.94513333 85
28.773642 -3.2644541 1.5737735 49
28.762863 -3.0396943 1.3087394 86
28.739229 -2.8541648 1.0269533 80
28.789982 -2.8082461 1.0243933 82
29.28894 -4.0504093 1.5474279 8
28.887369 -2.8872147 1.4187146 2
28.867758 -2.7491331 0.54629385 14
29.15024 -3.1438367 1.5820934 35
29.384716 -3.5509665 1.5906911 24
28.958563 -2.6579187 0.96161127 58
28.986698 -2.5866621 0.65655071 47
29.04213 -2.6622458 1.07627 21
29.521086 -3.9319577 1.6266373 9
29.51894 -3.7802017 1.7997278 5
29.328087 -3.0005572 1.6720514 4
29.536627 -3.4113791 1.6957529 9
29.350307 -2.762037 1.3878505 0
