# .PCD v0.7 - Point Cloud Data file format
VERSION 0.7
FIELDS x y z intensity
SIZE 4 4 4 4
TYPE F F F F
COUNT 1 1 1 1
WIDTH 101
HEIGHT 1
VIEWPOINT 0 0 0 1 0 0 0
POINTS 101
DATA ascii
28.652283 -2.9341238 0.7844606 45
28.557156 -3.1000147 1.0317345 24
28.408749 -3.1267409 0.89621025 63
28.862606 -2.9540489 1.2114263 2
28.338402 -3.2501135 0.97104073 69
28.658075 -3.1491151 1.3037034 10
28.218676 -3.3154166 0.98875594 77
28.805477 -3.1961062 1.3639734 4
28.135595 -3.3983111 0.90408343 74
28.4659 -3.3290253 1.3522297 24
28.458111 -3.3391101 1.39782 48
28.311659 -3.4781885 1.2591432 88
28.05829 -3.508013 1.0694534 74
27.971769 -3.5468085 0.81556082 70
28.342306 -3.5400438 1.4586958 58
28.098858 -3.6175025 1.1946814 87
28.86096 -3.439697 1.6194016 16
28.577482 -3.5717578 1.5795349 28
29.000217 -3.4035764 1.6848332 2
27.928806 -3.7033014 1.1400331 62
27.830208 -3.6949565 0.71914279 78
28.289869 -3.6976783 1.5417019 54
28.235687 -3.7377255 1.5171247 29
27.893982 -3.7536287 1.1229361 79
29.175356 -3.6429358 1.6256604 13
28.104864 -3.8339362 1.4606249 5
28.760986 -4.2420382 0.80855936 7
28.932396 -3.8411553 1.7063254 28
27.693285 -3.8417878 0.61736 67
28.810198 -3.9841757 1.595469 21
27.815557 -3.8956888 1.2063302 15
27.697573 -3.8877046 1.0489475 80
29.290478 -3.8758345 1.5945073 13
28.091806 -3.9264207 1.5955194 30
28.182131 -4.0529318 1.6924528 3
27.540224 -4.0222564 0.95751214 75
29.17643 -4.0745296 1.6600611 7
27.993341 -4.1183095 1.6579411 15
27.910254 -4.1675577 1.6441498 21
29.031874 -4.2289786 1.7712573 12
29.170641 -4.2874789 1.6840489 5
29.071373 -4.3890262 1.5893856 8
28.736351 -4.4892926 1.5605119 2
27.685698 -4.2884264 1.3034109 1
27.524809 -4.2180443 1.2256814 7
27.385855 -4.1569214 0.86116517 73
27.716322 -4.2854762 1.5661985 27
27.544538 -4.4069905 1.4762998 11
27.328999 -4.3364196 1.1482288 34
27.657789 -4.2738991 1.8211815 11
27.260235 -4.2926011 0.75213903 69
27.451485 -4.4539709 1.4309721 1
27.89817 -4.5149751 1.7460003 14
27.832937 -4.4912362 1.7741221 4
27.702299 -4.7235284 1.0722623 1
27.159319 -4.4584498 1.0577857 75
27.125788 -4.4232764 0.64639312 72
28.189466 -4.7294755 1.8793987 1
27.677788 -4.6074972 1.6756639 13
27.976648 -4.7349172 1.7407993 33
27.965839 -4.830761 1.804858 22
27.307211 -4.6330218 1.5207132 51
27.449558 -4.7091112 1.6075004 19
28.245064 -4.9887767 1.6594881 11
26.992979 -4.5766358 0.96744996 77
26.97994 -4.5486341 0.54665595 56
27.992004 -4.9694738 1.6282587 6
27.454607 -4.8624554 1.486238 21
27.276955 -4.8163419 1.5155581 37
27.252184 -4.9461508 1.3593999 7
26.863098 -4.6969581 0.86037022 78
27.646606 -5.0406466 1.6068814 43
27.624973 -5.093473 1.444744 8
28.372267 -5.2174711 1.6416605 6
26.803976 -4.7079344 1.3091168 24
27.556309 -5.1529989 1.480037 19
28.174391 -5.3989282 1.0373441 3
26.736002 -4.8154325 0.74943632 69
26.773777 -4.8400879 1.1544086 60
27.135698 -5.0568218 1.2435192 17
26.593557 -4.9275408 0.64656705 53
26.678297 -4.9579029 1.0310611 63
26.857302 -5.1331997 1.2015827 0
26.523157 -5.0578704 0.93548703 73
28.024309 -5.5761013 1.3435959 0
28.053543 -5.7842793 1.3717968 3
26.584133 -5.2052755 1.1592543 15
26.387838 -5.1620893 0.83064789 59
26.433706 -5.2988214 1.0592612 73
26.668457 -5.4652185 1.2037096 6
26.269339 -5.2639999 0.71517795 14
26.512775 -5.5477538 1.1059786 54
26.272394 -5.3870215 0.96721137 84
26.201263 -5.3748407 0.57733226 6
26.144526 -5.4760804 0.86022389 94
26.274153 -5.6071143 1.0492758 60
26.040396 -5.5692754 0.73880917 100
26.118887 -5.6815691 0.95649701 60
25.974407 -5.6653266 0.60229135 92
26.025179 -5.7650037 0.83119482 48
25.95553 -5.8527379 0.6965524 66
