# .PCD v0.7 - Point Cloud Data file format
VERSION 0.7
FIELDS x y z intensity
SIZE 4 4 4 4
TYPE F F F F
COUNT 1 1 1 1
WIDTH 78
HEIGHT 1
VIEWPOINT 0 0 0 1 0 0 0
POINTS 78
DATA ascii
25.414633 -5.6917791 0.5879162 54
25.423008 -5.6967335 0.66744161 57
25.315283 -5.7652102 0.55267686 44
25.261189 -5.8349118 0.67198336 23
25.536449 -5.6238103 0.7796312 62
25.717308 -5.4727058 0.60974073 60
25.627392 -5.5441318 0.90487182 66
25.065584 -5.9638772 0.78140485 41
25.825279 -5.3859591 0.72941542 60
25.756144 -5.4686875 1.0130277 72
24.937275 -6.1052413 0.85784131 83
25.931934 -5.294342 0.84834981 65
25.910746 -5.3950229 1.1051339 51
26.025383 -5.1994934 0.5510112 50
24.859587 -6.2550468 0.91388315 75
26.056963 -5.2064319 0.95734805 73
26.162933 -5.1065822 0.65564346 64
26.090813 -5.3256655 1.1895858 12
24.802677 -6.405951 0.9593308 64
24.62919 -6.4268727 0.54908103 79
26.222448 -5.1201382 1.0495718 72
26.296627 -5.008462 0.76226431 61
24.792791 -6.5681329 0.98432225 64
26.242834 -5.2445898 1.286424 1
24.609478 -6.5883026 0.57766956 25
24.820145 -6.7398567 0.99346691 64
26.386528 -5.0330968 1.1411229 50
26.438452 -4.9044518 0.86875933 62
24.629622 -6.7576427 0.58970821 62
24.883871 -6.9193645 0.98903942 54
24.689337 -6.935885 0.58321726 45
26.557199 -4.7839231 0.55728972 49
24.968328 -7.1031084 0.97509766 52
26.581959 -4.9457273 1.2192931 13
26.583694 -4.8025351 0.97025096 68
25.085855 -7.2943282 0.94741023 48
26.418251 -5.2954931 1.7734292 10
26.63842 -5.0913167 1.4417614 2
26.596838 -5.527844 1.7281351 11
26.64926 -5.7332535 1.7424488 50
26.683414 -5.1555533 1.6239777 17
26.689863 -4.6697316 0.66607702 63
26.752535 -4.7010598 1.0604011 74
26.792273 -4.8560362 1.2956142 0
26.830246 -4.5557556 0.77181107 45
26.817019 -5.0060859 1.5305629 20
26.801912 -4.9832668 1.5415106 23
26.83824 -5.9665117 1.6996115 21
26.952557 -4.5994463 1.1403216 83
26.949913 -4.8122506 1.4492671 1
26.981312 -4.7631154 1.3785011 26
25.223677 -7.4899812 0.91239333 24
27.012066 -4.9179273 1.6119301 22
26.994959 -4.4410272 0.86600012 60
27.082159 -4.6358976 1.3662581 59
27.17589 -4.499269 1.20692 83
27.020435 -6.2014885 1.66167 16
27.169107 -4.6633558 1.4626749 33
27.187111 -4.3307886 0.94375348 66
27.238821 -4.4568214 1.2737293 75
27.359415 -4.8549004 1.6299284 19
27.34589 -4.3883471 1.2976999 17
27.441599 -4.576159 1.5113786 28
27.392002 -4.2776222 1.1841786 56
27.410057 -4.2174702 1.012381 37
27.349224 -4.1710224 0.61017865 24
27.766512 -5.5576487 1.6921407 2
27.860601 -5.37573 1.6180249 19
27.842487 -5.1685262 1.5947136 24
27.755934 -4.9460168 1.6025894 28
27.646563 -4.4722786 1.5879141 13
27.675249 -4.5192404 1.5871102 25
27.769592 -4.7447333 1.5699914 27
27.586615 -4.100986 1.0807102 7
27.576153 -4.0921192 1.1050613 1
27.612305 -4.0591526 0.65694612 2
27.723259 -4.3066025 1.2973046 2
27.798889 -4.8056459 1.6074238 19
