# .PCD v0.7 - Point Cloud Data file format
VERSION 0.7
FIELDS x y z intensity
SIZE 4 4 4 4
TYPE F F F F
COUNT 1 1 1 1
WIDTH 92
HEIGHT 1
VIEWPOINT 0 0 0 1 0 0 0
POINTS 92
DATA ascii
23.943117 -6.8990116 0.57972294 37
23.937305 -6.9071474 0.63410997 53
23.988861 -6.7750182 0.57688975 90
24.001665 -6.8476653 0.69787836 81
24.019119 -6.7712698 0.56994849 84
23.94264 -7.0516591 0.66428441 64
24.079042 -6.7043166 0.69262797 82
24.071928 -6.7953124 0.8129524 55
23.964548 -7.1957188 0.68495268 83
24.164728 -6.6417308 0.80348873 83
24.166277 -6.7456512 0.91558027 18
23.999664 -7.3416247 0.70530415 56
24.271624 -6.5361528 0.63925338 5
24.278219 -6.5818415 0.89989412 82
24.290354 -6.7013288 1.0043342 49
24.078043 -7.497293 0.70212311 41
24.349537 -6.456275 0.75803125 24
24.407398 -6.5238914 0.98913592 77
24.445051 -6.6599526 1.0768714 60
24.45459 -6.3793235 0.86357009 63
24.174282 -7.6565409 0.69434017 52
24.55341 -6.4644823 1.0708523 58
24.622292 -6.6209316 1.1435608 18
24.603624 -6.3089428 0.9473983 74
24.631514 -6.2355337 0.67517501 34
24.352266 -7.8369088 0.64800805 49
24.71895 -6.5564041 1.2494507 0
24.720289 -6.4057498 1.1460932 13
24.758259 -6.1486211 0.77176285 57
24.753557 -6.2341943 1.0309101 56
24.864674 -6.3397336 1.2322479 1
24.886656 -6.0582733 0.86992383 63
24.884123 -6.1535563 1.1276475 24
24.977089 -5.9739885 0.56668645 59
24.925686 -6.0486341 1.2668417 37
25.020176 -5.9655008 0.96566713 55
25.175056 -6.3060045 1.2404679 15
25.124609 -5.8763728 0.65558535 61
25.159986 -6.1947784 1.4057167 10
25.176161 -5.8758926 1.0504313 68
25.24707 -5.772191 0.75711268 59
25.319099 -6.1187549 1.4888746 24
25.354549 -5.7873015 1.1221226 38
25.371117 -5.6643991 0.85609442 63
25.56596 -6.3728971 1.4682679 21
25.498814 -6.0454025 1.5625645 36
25.527826 -5.6930661 1.2002158 7
25.492664 -5.5520058 0.53698236 45
25.509253 -5.5560603 0.95241684 62
25.793114 -6.1211333 1.0053194 2
25.648792 -6.2866659 1.5877129 47
25.612123 -5.8359141 1.4164741 1
25.651316 -5.4400649 0.62167645 55
25.886448 -6.0168591 1.1258284 0
25.689207 -5.4516692 1.0254809 70
25.7073 -5.9725246 1.6235752 13
25.858324 -6.2249241 1.6496879 5
25.759872 -5.7402544 1.5043145 19
26.03805 -6.6864929 0.92367482 3
25.815529 -5.3254895 0.70177013 54
26.144871 -6.6094179 1.0359848 4
25.839455 -5.8802085 1.7217517 16
26.008554 -6.1462121 1.7382191 23
25.928003 -5.6433334 1.5857712 33
25.870541 -5.3448477 1.0981369 73
26.17444 -5.8269029 1.7293903 1
25.971298 -5.2060423 0.7870791 55
26.06497 -5.2375507 1.1642653 51
26.142712 -5.5554032 1.6448821 18
26.127802 -5.0834069 0.87420988 63
26.270573 -6.0890079 1.7803594 11
26.285126 -5.1295123 1.2195207 17
26.337259 -5.3030577 1.4571469 7
26.297314 -4.9591312 0.95170671 67
26.463284 -5.4812412 1.6590093 3
26.492638 -5.1879425 1.5447068 47
26.495493 -5.0170555 1.2824243 75
26.493998 -4.8348207 1.0190036 69
26.846022 -5.8343539 1.5902234 1
26.946793 -6.1109276 1.6443778 2
26.664574 -4.8929906 1.3621054 51
26.768803 -5.0885849 1.5772166 27
26.705854 -4.7124848 1.0772024 65
26.958374 -5.4353595 1.5991038 18
27.198112 -5.7705183 1.5963016 12
26.973425 -4.7868428 1.3797472 0
27.322676 -6.0645056 1.6424881 0
27.084528 -5.3148685 1.7024728 31
26.974567 -4.5923181 1.1102463 18
27.098639 -4.9935079 1.5906103 22
27.438457 -5.6822128 1.6518102 5
27.499043 -5.2424979 1.6827807 1
