# .PCD v0.7 - Point Cloud Data file format
VERSION 0.7
FIELDS x y z intensity
SIZE 4 4 4 4
TYPE F F F F
COUNT 1 1 1 1
WIDTH 78
HEIGHT 1
VIEWPOINT 0 0 0 1 0 0 0
POINTS 78
DATA ascii
24.817139 -6.0051103 0.57026267 54
24.917599 -5.943697 0.68423218 57
25.014193 -5.8801227 0.80126947 57
24.980362 -5.8701963 0.90518236 55
24.814466 -6.0077925 1.0113465 65
25.196051 -5.7596273 0.62588441 56
25.120762 -5.8133931 0.91464299 61
25.182444 -5.7400002 0.78234053 51
24.695717 -6.1533642 1.0938358 42
25.312647 -5.6836586 0.73658681 54
25.254602 -5.7499518 1.0167592 65
25.386715 -5.6033154 0.66096002 54
24.514109 -6.2784023 1.214391 28
25.429937 -5.6074963 0.84607196 56
25.505583 -5.5292115 0.55812848 47
25.16868 -6.0558496 1.3292223 1
25.41103 -5.688642 1.106769 63
25.391325 -5.7466702 1.1742454 19
24.469839 -6.4405169 1.2660871 14
24.961128 -6.1770339 1.4544839 2
24.715477 -6.6877446 1.1730343 14
25.568964 -5.4584112 0.55461019 44
25.564173 -5.5297346 0.94904596 59
25.509275 -5.5893083 1.0981079 72
25.630871 -5.4422412 0.66649973 64
24.852879 -6.3245378 1.535266 46
25.592566 -5.6310201 1.1850514 21
24.907541 -6.5149484 1.539489 51
25.672541 -5.4404993 1.0029122 74
25.720041 -5.4554648 1.043269 72
25.75684 -5.3511405 0.77673835 54
24.983927 -6.7129622 1.5359954 44
25.338469 -7.0550566 0.89493591 2
25.731373 -5.5603204 1.2837609 3
25.550566 -5.9335461 1.6110768 21
25.213913 -6.0247293 1.7948055 10
25.845091 -5.2887254 0.90526944 79
25.68928 -5.782825 1.5243663 22
25.373144 -6.2471628 1.7459619 6
25.097143 -6.9203315 1.5167 36
25.907864 -5.2647171 0.87423658 63
25.903175 -5.3833179 1.1231276 75
25.826223 -5.6305294 1.4401803 11
25.462263 -6.4535942 1.736074 21
25.951237 -5.5045953 1.3458135 45
25.967716 -5.4762621 1.3547933 68
25.485168 -6.6377673 1.756853 24
25.237764 -7.1341143 1.4881938 18
26.050854 -5.1429825 0.79275584 28
26.073008 -5.1757364 0.53799081 6
26.089876 -5.1806059 0.95536089 65
26.108822 -5.3115163 1.1960579 76
26.122726 -5.3192139 1.2668847 75
26.110214 -5.4297252 1.4402562 25
26.240379 -5.0796742 0.62909222 16
26.2589 -5.2252889 1.2938054 20
25.68524 -6.8732333 1.7004825 15
26.271605 -5.1596093 1.1857398 55
26.279642 -4.9964075 0.67214334 26
26.28056 -5.0966768 1.0331827 58
26.398762 -4.9804835 0.72459954 39
26.38188 -5.3792009 1.4825652 19
26.380199 -5.7354989 1.6781183 31
25.402632 -7.3559003 1.4492435 5
25.794039 -7.0817633 1.6875197 22
25.388416 -7.5212479 1.5003219 0
25.108456 -7.6580982 1.1732426 2
26.486334 -5.00912 1.0749892 9
26.523119 -5.019733 1.0860839 10
26.586723 -5.174686 1.3090042 5
26.529551 -5.3849807 1.5741733 25
26.572819 -5.590559 1.5711199 23
26.556206 -5.3009748 1.5698683 18
26.669127 -4.8995714 0.76606321 1
26.663837 -5.9991221 1.5720963 26
25.172976 -7.8429418 1.1872617 2
26.637606 -6.185555 1.6088542 14
26.664465 -6.3799343 1.6245146 8
