# .PCD v0.7 - Point Cloud Data file format
VERSION 0.7
FIELDS x y z intensity
SIZE 4 4 4 4
TYPE F F F F
COUNT 1 1 1 1
WIDTH 161
HEIGHT 1
VIEWPOINT 0 0 0 1 0 0 0
POINTS 161
DATA ascii
22.354815 -7.681457 0.45163462 5
22.258818 -7.7061458 0.58032012 8
22.2278 -7.7506289 0.67456025 74
22.220928 -7.7997899 0.75630867 85
22.08272 -7.9382792 0.37792835 47
22.116341 -7.9946966 0.44292435 13
22.229248 -7.8495927 0.83098525 41
22.065918 -8.0114603 0.55858761 18
22.066133 -8.0442286 0.64870006 55
22.2558 -7.9015579 0.90090144 56
22.092337 -8.0822506 0.72480923 66
22.276978 -7.9476829 0.97528517 56
22.147287 -8.1280327 0.78724843 47
22.36244 -8.0138006 1.0164394 62
22.171656 -8.1544781 0.86995858 53
22.094208 -8.2847595 0.36396569 51
22.078012 -8.2911549 0.47369498 46
22.087797 -8.3028078 0.56942141 61
22.083534 -8.3035812 0.67701495 75
22.210663 -8.1837215 0.94575429 58
22.477186 -8.0855303 1.0437653 57
22.11883 -8.316741 0.76400751 49
22.170872 -8.261878 0.89057535 46
22.123049 -8.3148365 0.78562969 40
22.257437 -8.2185497 0.97820783 55
22.092989 -8.3727446 0.66779941 44
22.302214 -8.2285528 0.99550062 59
22.421837 -8.2011795 1.0229079 48
22.146044 -8.3205547 0.85614818 39
22.129417 -8.4541616 0.5141241 25
22.108662 -8.4263382 0.65891349 45
22.136517 -8.4604959 0.52781701 31
22.153786 -8.3912783 0.80707479 30
22.12269 -8.4293556 0.69764566 46
22.614506 -8.1625166 1.0641847 51
22.139465 -8.4124289 0.75928944 33
22.199953 -8.3305874 0.93617511 50
22.158337 -8.4868641 0.40031201 24
22.614016 -8.1917849 1.0541859 44
22.184341 -8.3492785 0.91765308 43
22.441219 -8.2870626 1.021548 51
22.14167 -8.4844303 0.55971837 36
22.155968 -8.386488 0.8674593 33
22.288847 -8.3311148 0.98836666 54
22.321516 -8.3627548 0.97797018 54
22.224234 -8.3794718 0.95187575 51
22.463549 -8.3366251 1.0212263 49
22.190031 -8.5480623 0.40589032 18
22.375891 -8.3991461 0.98983788 48
22.458038 -8.3967304 1.0148309 48
22.595869 -8.3471832 1.0414444 48
22.825371 -8.1831894 1.0773491 44
22.775978 -8.2441826 1.0721128 47
22.653002 -8.3429642 1.0491973 48
22.537857 -8.4185314 1.0230321 46
22.626196 -8.4380331 1.0413917 48
22.769192 -8.4092751 1.0543976 45
22.725622 -8.4433508 1.0453755 44
22.845839 -8.3465261 1.076263 45
22.997736 -8.1551228 1.1250526 13
22.925941 -8.3153534 1.0891796 45
22.810869 -8.4805679 1.0574349 44
23.101885 -7.35952 1.2430043 46
22.918917 -8.4649706 1.0672812 43
22.941385 -8.4656725 1.0717422 44
23.099838 -7.2100511 1.2062868 40
23.049101 -8.3489857 1.1036921 35
23.08012 -7.0524998 1.1813748 72
23.082798 -8.3862362 1.1085749 34
23.009615 -8.5252943 1.0729107 41
23.174162 -8.3152943 1.1730446 5
23.121691 -8.4856949 1.0898008 38
23.143259 -8.5308037 1.0782729 41
23.366249 -6.9911618 0.99437475 64
23.229738 -8.4472036 1.1346294 16
23.207947 -8.5619831 1.0894705 36
23.277388 -8.4825335 1.1379117 10
23.299074 -8.5708504 1.1111587 23
23.507671 -6.8783965 0.88624394 57
23.35808 -8.5751734 1.1350219 13
23.422552 -8.5212631 1.1394638 2
23.531984 -7.2755885 1.4688523 18
23.575361 -7.1382461 1.4099927 5
23.655563 -6.7622237 0.7774269 51
23.650969 -7.4647536 1.4473258 16
23.77968 -7.6579366 1.4232824 13
23.793421 -6.8938961 1.2281308 0
23.794693 -7.8078413 1.4607415 6
23.517788 -8.6312885 1.1132489 7
23.661394 -8.5629511 1.0689579 0
23.722357 -8.6333408 1.0938153 1
23.72994 -8.6723976 1.0662661 3
23.738356 -8.6873837 1.117925 7
23.814764 -8.5493889 1.1248401 1
23.861311 -8.4772882 1.1204058 1
23.803543 -8.6452761 1.1594781 4
23.807512 -8.6548281 1.1626421 5
23.890446 -8.4996634 1.2245808 4
23.8536 -8.6963854 1.1829189 1
23.911545 -7.8422012 1.5068885 21
23.876389 -6.7569442 1.1547725 19
23.960817 -8.010066 1.4228317 2
23.824785 -6.652514 0.65997189 54
24.050486 -7.7722354 1.5826837 21
23.970577 -7.0391197 1.6603727 21
24.110647 -7.8609352 0.74678487 1
24.08285 -7.2328596 1.6416706 10
23.972864 -6.6231847 1.0778998 69
24.02207 -6.897965 1.5993614 35
24.181616 -7.4184852 1.6305796 12
24.106524 -8.2028532 1.3995003 0
24.000393 -8.4594231 1.3061156 5
24.139109 -8.2043371 1.3775411 1
24.15316 -8.101614 1.5157797 22
23.995943 -6.5353203 0.54402322 49
23.935255 -8.6375904 1.1363065 10
23.920067 -8.6834984 1.2212446 1
24.085266 -8.4064856 1.3992906 4
24.108843 -8.3238859 1.5289772 1
24.126326 -8.3458242 1.4408239 4
24.106926 -6.4971199 0.9809038 64
24.174459 -6.7819352 1.4914365 19
24.039944 -8.675868 1.1691276 21
24.122908 -8.6437387 1.2619189 17
24.292665 -8.0416527 1.5894334 16
24.296152 -7.7330437 1.6049139 3
24.26899 -6.3750887 0.87453842 57
24.313328 -7.6141787 1.6078353 7
24.438805 -7.9546556 1.6384133 5
24.4501 -7.9848523 1.656347 4
24.358723 -7.6263385 1.7180152 15
24.486874 -7.8249598 1.5670069 11
24.332102 -7.4888978 1.874926 10
24.328568 -7.4005532 2.0468197 0
24.360294 -7.3674259 2.0020921 1
24.416643 -6.243 0.77394068 74
24.51881 -6.3836536 1.2381895 4
24.606066 -7.9221845 1.7225665 11
24.652784 -6.2497177 1.1473625 76
24.618198 -6.1233292 0.65105039 4
24.758976 -6.1028876 1.0740545 69
24.859524 -6.5975714 1.5846825 13
24.843597 -6.4221072 1.5648538 41
24.898966 -6.7769289 1.5942491 1
24.927166 -6.9518628 1.6129301 1
24.822491 -6.000092 0.52948409 5
25.054478 -7.1564469 1.586231 1
25.028482 -7.4735117 1.674909 1
24.929909 -5.9709415 0.96943057 63
24.955908 -6.2799349 1.4868747 23
25.140617 -7.3490562 1.5815984 4
25.061407 -6.1333041 1.4147826 15
25.13022 -5.8426304 0.85300446 53
25.437681 -7.0508714 1.8645208 1
25.296837 -6.0174103 1.2809818 2
25.393221 -5.8586936 1.2163594 9
25.343094 -5.7116351 0.73430437 0
25.604446 -6.4096255 1.6674 0
25.714422 -6.6189075 1.6432066 2
25.82436 -6.8242564 1.622098 3
25.836775 -7.0017018 1.6469966 0
