# .PCD v0.7 - Point Cloud Data file format
VERSION 0.7
FIELDS x y z intensity
SIZE 4 4 4 4
TYPE F F F F
COUNT 1 1 1 1
WIDTH 94
HEIGHT 1
VIEWPOINT 0 0 0 1 0 0 0
POINTS 94
DATA ascii
24.92635 -5.8571477 0.59151459 18
25.080166 -5.7936716 0.61337149 37
24.804695 -5.9839468 0.67904305 17
24.866701 -5.9074879 0.81257057 49
24.763069 -5.996315 0.6870169 18
24.741043 -6.0577273 0.54590195 5
25.03377 -5.8528166 0.89208859 51
25.077631 -5.8355103 1.0095685 18
25.201338 -5.7949796 0.97246164 11
24.90732 -5.9702621 1.1068395 71
24.513971 -6.1077847 0.83037192 58
24.783342 -6.1136861 1.1859287 78
24.382799 -6.2459984 0.91539466 73
24.659136 -6.2520151 1.2649974 71
24.238585 -6.3753219 1.007825 64
24.110657 -6.411499 0.57975584 59
24.548782 -6.3899589 1.3404387 18
24.664322 -6.5821724 1.3090701 0
24.117348 -6.5060391 1.093236 68
23.955133 -6.5338054 0.68433946 58
24.343893 -6.6600494 1.4922631 16
24.000574 -6.6346045 1.1774471 17
23.786089 -6.6493983 0.79648846 58
23.893448 -6.7607937 1.2601326 0
24.205887 -6.7777114 1.5870252 38
23.628571 -6.7621489 0.90661407 62
23.778877 -6.8817883 1.3477842 1
23.962667 -6.8655314 1.7388139 12
23.502583 -6.8810554 1.0013536 75
23.761475 -7.0278273 1.3887098 0
24.019791 -7.0312586 1.7450525 5
23.386978 -6.9314528 0.56614763 57
23.410713 -7.0044441 1.0800058 51
24.128769 -7.2091784 1.7265493 12
23.62505 -7.1351819 1.4911679 36
24.114557 -7.3485742 1.7737726 16
23.340355 -7.130476 1.1489403 26
23.245201 -7.0423546 0.67316175 54
23.619217 -7.2764001 1.5320964 36
23.659872 -7.430223 1.5517588 52
24.210142 -7.5211215 1.7700599 21
23.10371 -7.1481342 0.78208882 60
23.755184 -7.5965137 1.5449185 51
23.082001 -7.1960964 1.320882 6
23.380056 -7.5659089 1.243508 16
23.150612 -7.3568301 1.3230042 63
24.404314 -7.7194338 1.7202938 13
22.972555 -7.251318 0.88827431 63
23.852676 -7.7634797 1.5416534 45
24.512159 -7.8900762 1.7164462 10
24.157755 -7.9479489 0.88378358 4
23.97567 -7.9331179 1.5276276 40
22.888529 -7.3657212 0.96887189 61
24.102169 -8.0656538 0.96009791 1
24.095707 -8.1016808 1.5195272 20
22.810644 -7.4786811 1.0499085 74
22.767366 -7.597074 1.115779 16
22.588428 -7.5079212 0.67429626 12
22.793154 -7.7363834 1.1453067 6
24.173037 -8.2515888 1.5326413 3
22.835331 -7.8755999 1.1684802 3
22.443459 -7.5945592 0.79624248 46
22.926533 -8.0287018 1.1666462 3
23.021078 -8.1800756 1.1670125 2
22.369637 -7.7004633 0.87920851 78
23.14599 -8.3400097 1.1533679 4
23.894953 -8.4941702 1.274179 4
22.328743 -7.8110976 0.94536859 76
24.078167 -8.6732559 1.2414515 16
23.250233 -8.4901714 1.1553147 4
23.524588 -8.6985149 1.0692321 20
22.315645 -7.9278483 0.99815285 60
22.273479 -7.7805066 0.42903939 5
22.352993 -8.0592012 1.0266027 60
22.124672 -7.8560877 0.55905211 62
22.423708 -8.1982183 1.0371426 56
22.512478 -8.3419676 1.0430354 48
22.067492 -7.9587474 0.63555163 75
22.618084 -8.488554 1.0414693 46
23.564093 -8.8197079 1.1114315 7
22.03112 -8.06427 0.70354998 75
22.053549 -8.1872072 0.73990566 57
22.724689 -8.6319466 1.0426924 44
22.854923 -8.7816143 1.0347341 42
22.065779 -8.3026981 0.78501451 56
22.986086 -8.9279146 1.0254467 36
23.098272 -9.0641584 1.0344044 18
22.099958 -8.4237633 0.81930161 19
22.143332 -8.5436449 0.85323387 19
22.224506 -8.6741447 0.86710995 19
22.328566 -8.8099861 0.86991513 31
22.441801 -8.9456244 0.87135309 17
22.566046 -9.0825777 0.8688997 16
22.861288 -9.2835665 0.77620816 0
