# .PCD v0.7 - Point Cloud Data file format
VERSION 0.7
FIELDS x y z intensity
SIZE 4 4 4 4
TYPE F F F F
COUNT 1 1 1 1
WIDTH 92
HEIGHT 1
VIEWPOINT 0 0 0 1 0 0 0
POINTS 92
DATA ascii
24.142485 -6.4259586 0.56290197 50
24.230497 -6.373549 0.67364717 63
24.313763 -6.3141947 0.78865677 71
24.459633 -6.2242479 0.61402214 4
24.409863 -6.2568517 0.8982631 72
24.530933 -6.1465497 0.74021971 18
24.529564 -6.1998649 0.99652785 69
24.648092 -6.0780396 0.84315091 49
24.768612 -6.0372853 0.52479702 4
24.678938 -6.1469879 1.0829439 69
24.796803 -6.0131955 0.93373466 60
24.884905 -5.9558344 0.63194054 16
24.849514 -6.0970845 1.1586754 74
24.996336 -5.8725452 0.74240237 44
24.707888 -6.3326297 1.4403652 40
24.962269 -5.9502735 1.0137538 50
24.608152 -6.4818754 1.5240191 43
24.82543 -6.1842752 1.3510287 48
24.50668 -6.6254702 1.6101309 14
24.970278 -6.0416574 1.2515134 15
25.019295 -6.041307 1.2366152 21
23.159992 -7.1116147 0.60157084 60
24.460854 -6.7821064 1.6704588 2
25.16555 -5.8914466 1.0766891 10
25.148771 -5.9010916 1.1370149 43
25.234716 -5.8133731 0.78994602 9
24.65197 -7.001719 1.6199014 1
23.039284 -7.1997705 0.70447427 57
25.313705 -6.0124393 1.2564121 4
24.801664 -7.2110424 1.5903982 4
25.348291 -6.2717738 1.5935749 12
25.43577 -6.4755163 1.5864902 15
25.366238 -6.6347561 1.6551204 29
24.32851 -7.3930879 1.9096321 3
22.921953 -7.2862515 0.80957735 62
24.975874 -7.4279361 1.5545695 3
22.83029 -7.3746066 0.9017812 51
22.765499 -7.4667525 0.98389846 70
22.70705 -7.5573554 1.0633028 56
22.710686 -7.6643744 1.1101136 32
22.751337 -7.7808108 1.1401105 12
22.467426 -7.5861406 0.689071 12
25.617542 -6.8776784 1.5787458 18
25.532312 -7.0296674 1.6586373 2
25.358345 -7.1512294 1.7831026 8
22.833258 -7.9067364 1.1532171 6
22.928015 -8.0346756 1.1609213 4
22.361761 -7.655797 0.79712725 60
23.02636 -8.1597643 1.1686867 1
22.326517 -7.7459679 0.86838669 81
23.114874 -8.2772417 1.1861726 0
23.366856 -8.4506588 1.1181158 0
23.52129 -8.5859985 1.108222 1
22.302551 -7.8344636 0.9356429 42
22.29563 -7.9260302 0.99640816 59
22.358654 -8.0371504 1.0194553 59
22.438972 -8.15133 1.0369792 55
22.534708 -8.2668695 1.0473847 50
22.651251 -8.3867445 1.0523949 47
22.088205 -7.8824205 0.54364806 78
22.056223 -7.9648342 0.61810029 78
22.03363 -8.0460157 0.6890462 77
22.042009 -8.1328564 0.74368531 67
22.774826 -8.5070114 1.0555695 45
22.074348 -8.2261238 0.78695828 68
22.105242 -8.3148966 0.83676183 51
22.894592 -8.6201134 1.0627583 43
22.117931 -8.3907995 0.8973819 44
23.713184 -8.7326975 1.0814226 7
23.633215 -8.7713718 1.1979012 4
23.21089 -8.8648472 1.0500301 32
23.040031 -8.7393875 1.0612346 40
23.302982 -8.9545031 1.0817618 11
22.184505 -8.4841223 0.92963159 48
22.276783 -8.5826311 0.95418137 52
22.38839 -8.6845541 0.96854496 48
22.503115 -8.7826662 0.98204798 47
22.06682 -8.4432859 0.32833984 21
22.114901 -8.5359278 0.36748755 17
22.140928 -8.6138182 0.42463982 26
22.190676 -8.6981487 0.46945831 150
22.64583 -8.8884583 0.98624831 44
22.269064 -8.7887869 0.5006519 150
22.29962 -8.8545647 0.56164706 117
22.292103 -8.9003239 0.64891356 49
22.797749 -8.9932013 0.99009472 37
22.948624 -9.0920849 0.99518245 26
22.911613 -9.1107206 1.1074229 1
22.361162 -8.9721394 0.69369966 17
22.438711 -9.041954 0.73624235 14
22.509226 -9.1044788 0.78674483 12
22.688313 -9.2055683 0.77620542 15
