# .PCD v0.7 - Point Cloud Data file format
VERSION 0.7
FIELDS x y z intensity
SIZE 4 4 4 4
TYPE F F F F
COUNT 1 1 1 1
WIDTH 177
HEIGHT 1
VIEWPOINT 0 0 0 1 0 0 0
POINTS 177
DATA ascii
23.449797 -8.9253082 0.98232335 20
23.294064 -8.7439251 1.0077208 38
23.175747 -8.5748405 1.0171804 40
23.90587 -8.7574205 1.1452833 1
23.905626 -8.6303883 1.0888876 19
23.48761 -8.3534937 1.0873891 42
23.667885 -8.3967257 1.1127573 16
23.794697 -8.457571 1.0932926 20
23.578018 -8.3611517 1.1082013 22
23.393116 -8.3348322 1.0758601 43
23.734671 -8.3714104 1.1581978 4
23.840872 -8.4326801 1.1482687 3
23.062418 -8.4035988 1.0232544 41
23.283443 -8.2951889 1.0754369 46
23.505417 -8.2646713 1.1174254 22
23.31987 -8.2566128 1.0801749 44
23.183887 -8.2947865 1.0622249 45
23.626652 -8.2608795 1.1321754 10
23.657251 -8.2527571 1.1747741 2
23.105383 -8.2326841 1.0617957 46
23.08433 -8.2349024 1.0642186 46
24.085741 -8.4510546 1.1100781 1
22.984587 -8.2525702 1.043913 46
23.278273 -8.1243477 1.0873034 43
22.97031 -8.2411385 1.0227844 43
23.421648 -8.0981178 1.1519628 13
24.19396 -8.5329466 1.0914521 6
23.522669 -8.0856867 1.1368159 5
22.91551 -8.2136211 1.0328603 49
23.068396 -8.1216173 1.0616187 46
22.917496 -8.1820078 1.0414848 51
24.248383 -8.5117445 1.1949383 8
22.81546 -8.2171669 1.0146289 51
22.862057 -8.112999 1.0339485 52
24.351316 -8.4915676 1.108959 10
23.245583 -7.9327784 1.1073046 35
22.734865 -8.192585 1.0004656 56
24.278149 -8.3377628 1.1335478 0
22.875397 -8.0743484 1.0271592 49
23.401148 -7.9024482 1.1573812 4
23.39613 -7.8928027 1.1700186 2
22.764256 -8.1292849 1.0141571 58
23.035639 -7.9461479 1.0765524 53
22.672731 -8.1882029 0.97226423 57
24.436451 -8.5376453 1.231618 2
22.704193 -8.1203861 0.98539019 59
22.620871 -8.1936207 0.93521887 56
24.365042 -8.3079357 1.2109145 1
22.855507 -7.9683027 1.0318341 57
22.601532 -8.1822824 0.89474297 50
24.467585 -8.4714308 1.190051 24
24.357449 -8.286087 1.2355342 1
22.564354 -8.212635 0.84157264 49
22.611097 -8.1490841 0.90137315 48
22.65127 -8.087101 0.96703762 58
24.521708 -8.5053988 1.1843184 19
22.542227 -8.1806908 0.80689114 52
22.512829 -8.2294855 0.74454129 73
22.539938 -8.1751909 0.81056488 57
22.810999 -7.916153 1.0163516 55
22.682573 -7.9869103 0.98521322 59
22.601267 -8.0646563 0.88698399 42
22.496906 -8.2193289 0.70007539 73
22.493771 -8.2535458 0.63284302 64
24.513187 -8.4188356 1.3049948 6
23.30304 -7.724277 1.1666706 2
22.606369 -8.0391483 0.88655311 37
22.495447 -8.2706699 0.56943244 54
22.503462 -8.1729527 0.71776563 78
22.501728 -8.2848358 0.50583386 50
22.54788 -8.093709 0.78119808 42
24.610895 -8.5543385 1.2759541 1
23.057268 -7.7348671 1.0780941 47
22.497534 -8.2174788 0.53140312 46
24.464916 -8.2384949 1.3249989 4
22.492031 -8.1455269 0.67203498 66
22.550808 -8.0384626 0.81219882 38
22.484453 -8.1730413 0.61730415 54
23.194597 -7.6764646 1.1493447 9
22.878702 -7.7727313 1.0268426 53
22.726595 -7.817215 0.96662855 41
22.787672 -7.7714329 0.98658335 49
22.511166 -8.0120516 0.73458081 68
22.631765 -7.8775229 0.87495434 40
22.478899 -8.0904751 0.52944189 16
22.53471 -7.9352856 0.7848829 45
24.249477 -7.831316 1.1343733 0
22.469166 -7.9992895 0.6772877 61
22.475927 -7.9805369 0.65371501 57
23.23608 -7.5566525 1.1616546 5
24.538042 -8.1740656 1.4337065 5
22.817268 -7.6415572 0.92959481 75
22.472849 -7.9583921 0.5593065 19
22.873253 -7.5181193 0.85952473 73
23.25173 -7.4146276 1.1134268 18
22.976524 -7.4097304 0.76474291 37
23.307816 -7.285285 1.0484672 42
24.383869 -7.7515302 0.9747299 3
23.126112 -7.3126516 0.64858317 18
23.708271 -7.342196 1.3346351 26
24.570461 -8.0930262 1.561262 1
24.463957 -7.9093652 1.4827889 21
24.599119 -8.0247116 1.507929 5
24.475538 -7.7600503 0.97557485 4
24.487818 -7.8348227 1.5164801 37
24.206041 -7.6419334 1.4848938 17
24.597544 -7.848 1.5622394 28
24.339174 -7.633976 1.5481938 42
24.606541 -7.7033749 1.0133451 4
24.326248 -7.5662599 1.5729471 42
24.021362 -7.3731909 1.4616131 19
24.231926 -7.4456143 1.562927 48
24.786264 -7.8012528 1.6190569 11
24.488279 -7.4977851 1.6418142 6
23.645334 -7.1686749 1.3295678 49
23.37903 -7.158855 0.97852826 75
24.106516 -7.2746158 1.5669979 45
24.148479 -7.2642832 1.5662948 49
23.232639 -7.1956091 0.55703795 33
23.487324 -7.0394511 0.88754421 70
23.522198 -6.9730377 1.3618647 0
24.956926 -7.7441416 1.683652 14
23.630674 -6.9278336 0.78328258 65
24.091745 -7.0895638 1.561667 26
24.088463 -6.9995856 1.0390027 12
24.263393 -7.1949739 1.6371599 4
24.68574 -7.4378886 1.6942072 17
25.030943 -7.8024058 1.7141821 5
24.93388 -7.6146417 1.7190158 9
24.679249 -7.3747158 1.7999971 20
24.104563 -6.9353418 1.5244532 40
24.457142 -7.1225419 1.6894279 11
23.936319 -6.7890649 1.0891589 45
25.067186 -7.6616049 1.7794447 2
24.638342 -7.2939806 1.8650916 16
23.7656 -6.8109279 0.68326896 61
24.274923 -6.8270183 1.4079659 2
24.591864 -7.1871133 1.8053981 16
24.82439 -7.222333 1.9235172 1
24.646517 -7.0440254 1.7459143 8
24.610312 -7.0326905 1.7656763 5
24.024069 -6.6512065 1.0189676 72
23.913799 -6.6912494 0.57976556 63
24.227411 -6.6475525 1.4060683 1
24.146246 -6.5231147 0.93153876 66
24.600084 -6.8690968 1.7365191 2
25.39399 -7.1363525 1.5423595 2
24.700558 -6.7345581 1.6599115 4
24.730505 -6.5757852 1.6192248 16
24.521505 -6.4010878 1.2120326 7
24.301004 -6.4002633 0.83146834 61
25.421705 -6.8425293 0.78209913 0
24.470818 -6.2762098 0.725384 60
24.623344 -6.2594581 1.1422671 57
24.801268 -6.4265585 1.5616934 35
25.591063 -7.0503473 1.6019621 9
25.768152 -7.0064292 1.6484017 1
25.730766 -6.9420733 1.6857792 11
24.924562 -6.2913771 1.480139 18
25.760475 -6.8292785 1.6236769 14
25.030123 -6.1460042 1.411448 67
24.745235 -6.1195631 1.0631243 80
24.611889 -6.1412024 0.63504207 69
25.834005 -6.6753435 1.5643637 28
25.59569 -6.4314222 1.6503576 29
24.790216 -6.0114298 0.52979863 4
24.878946 -5.9782691 0.98191249 77
25.158831 -6.0017691 1.3335996 56
25.029873 -5.8393054 0.89207107 75
25.76383 -6.2998896 1.5519079 23
25.268869 -5.8514738 1.2657791 51
25.708986 -6.1029515 1.5601116 21
25.637375 -5.9046555 1.5778662 13
25.437935 -5.711875 1.1732497 56
25.18824 -5.697958 0.80440027 53
25.611105 -5.5704923 1.0817031 5
25.41514 -5.56809 0.68333697 49
