# .PCD v0.7 - Point Cloud Data file format
VERSION 0.7
FIELDS x y z intensity
SIZE 4 4 4 4
TYPE F F F F
COUNT 1 1 1 1
WIDTH 144
HEIGHT 1
VIEWPOINT 0 0 0 1 0 0 0
POINTS 144
DATA ascii
25.633234 -5.4686456 0.79075372 46
25.431477 -5.6064062 0.8998155 64
25.69952 -5.6328783 1.2628222 11
25.260422 -5.7490721 0.99774778 76
25.960066 -5.7525134 1.2331759 1
25.465841 -5.773869 1.3120264 36
25.494493 -5.7662969 1.3747953 10
25.321701 -5.8845015 1.2239838 83
25.131575 -5.8990908 1.0743097 79
25.000095 -5.9161167 0.64464915 6
25.134563 -5.9797392 1.1564584 76
25.41642 -5.930007 1.4256936 23
25.552517 -5.9528084 1.5255336 33
25.794212 -5.8716621 1.5695038 32
25.014502 -6.048789 1.1477896 65
25.323414 -6.0314765 1.4792907 39
24.951881 -6.0710778 1.0887916 75
24.839952 -6.052568 0.74073988 82
25.287342 -6.0760951 1.5043725 52
25.165236 -6.1277041 1.3969486 42
26.031961 -6.0566983 1.6276828 7
24.911636 -6.2007298 1.2175523 7
24.782463 -6.1636872 1.0145516 66
25.54385 -6.2311444 1.6288781 19
26.037266 -6.2326961 1.5575403 25
24.706467 -6.1958508 0.82883602 66
25.185801 -6.2298074 1.5737948 33
26.150297 -6.1226206 1.6630375 2
25.223862 -6.2738972 1.6249423 18
24.844778 -6.3059897 1.2395002 3
26.14093 -6.2730408 1.5966642 13
24.643511 -6.2600379 0.925107 63
25.634457 -6.7732058 0.90583944 0
25.031715 -6.3477345 1.5586697 23
25.087635 -6.3778472 1.6443822 10
24.914902 -6.4414902 1.4592828 13
25.875015 -6.5859184 1.576244 19
24.657116 -6.3800421 1.1741205 23
24.532658 -6.322186 0.93674773 69
25.435875 -6.5812049 1.6240546 1
26.22521 -6.4835124 1.5803663 14
24.518267 -6.3586364 0.83001137 61
26.185888 -6.5454249 1.5918776 15
25.10528 -6.5596213 1.6609598 1
24.48847 -6.4583335 1.1017048 69
25.021002 -6.5786104 1.6624126 3
24.404009 -6.4584346 1.0245892 73
24.402391 -6.4561377 0.72729111 58
25.229074 -6.7721171 1.6291503 1
24.792629 -6.6257033 1.6189896 20
24.570723 -6.621357 1.4589795 4
24.33083 -6.5363107 1.0233058 73
24.306522 -6.4927535 0.57883704 59
25.309458 -6.8750606 1.6280339 0
26.175892 -6.6518822 1.6289159 6
26.391184 -6.4720559 1.6557404 1
25.761702 -6.9024181 1.5727216 3
26.002226 -6.7382541 1.7759558 11
25.96961 -6.7717276 1.7504826 18
25.991854 -6.8553057 1.6229162 9
25.346815 -6.9810238 1.6051171 0
24.61692 -6.6861076 1.5494053 33
24.307898 -6.6001902 1.0997885 56
24.334717 -6.626833 1.2778802 1
24.276918 -6.5496402 0.6312061 62
24.49011 -6.7566457 1.4577404 9
24.208694 -6.620028 0.92735237 73
24.477972 -6.761374 1.5322607 36
24.257195 -6.7175188 1.1619934 12
24.704573 -6.7944775 1.760385 4
24.61198 -7.0127125 1.0843941 1
24.387556 -6.8332381 1.3535383 0
24.243177 -6.7505956 1.1595571 9
24.158949 -6.6210065 0.6809172 57
24.617502 -7.0401635 0.99619287 2
24.538271 -6.8459125 1.6893456 15
25.719294 -7.0861974 1.696003 1
25.637218 -7.163343 1.5771339 2
25.207708 -7.1085463 1.703941 6
24.956133 -7.0438037 1.7458694 11
24.766403 -7.0766554 1.6840143 17
24.432285 -6.9120851 1.5880783 31
24.415291 -6.9094296 1.5935564 23
24.556234 -7.0976753 0.95554978 5
24.557947 -7.0973969 1.6363311 5
24.102356 -6.7065921 0.82520324 65
24.111176 -6.7839985 1.0805153 56
24.006092 -6.7433333 0.78746402 59
24.265963 -6.9554734 1.5190886 38
24.429449 -7.0789962 1.6182464 9
24.007467 -6.7926598 0.71488512 65
23.976238 -6.8491821 0.99406523 75
23.90229 -6.873754 0.60931379 66
23.872128 -6.8667712 0.8849296 62
24.880129 -7.1677189 1.8912157 18
24.359039 -7.1191826 1.5840842 31
24.153193 -7.0129633 1.4226748 13
24.507837 -7.2668295 1.6168646 15
24.214769 -7.1529131 1.5061891 38
23.870161 -6.9214363 0.89180619 69
25.158691 -7.4257312 1.8003931 4
24.032829 -7.1704712 1.4536196 16
23.747612 -6.9290824 1.2175061 42
23.775339 -6.9933743 0.78453058 66
23.755175 -6.9928641 0.97691613 55
24.626686 -7.4696417 1.5976928 21
23.935438 -7.1399746 1.4108136 47
23.77924 -7.0641179 1.3150523 9
23.892706 -7.1973562 1.3766876 43
24.045582 -7.3372574 1.3908033 12
23.684843 -7.0025988 1.0987386 71
23.694252 -7.0964298 0.942518 67
23.689949 -7.0643926 0.67374909 63
23.68622 -7.1166306 1.2134503 40
23.64456 -7.1146784 1.0682626 37
23.774376 -7.2288928 1.2909583 57
25.302406 -7.6377201 1.7726671 4
23.665081 -7.1876736 1.0786054 41
23.60103 -7.1530561 0.84098274 73
23.605452 -7.1322699 0.56479043 56
24.788221 -7.6849008 1.5591071 36
23.684847 -7.2657146 1.1945987 53
23.565342 -7.2305202 0.9828698 62
23.607302 -7.2617116 1.1228952 30
23.512041 -7.2087388 0.73626649 62
23.588594 -7.2968063 1.10102 42
24.902941 -7.7980075 0.9949466 1
24.718294 -7.8920188 1.1304128 0
24.898748 -7.8825383 1.5483017 15
23.668856 -7.4386601 1.1258907 0
23.468042 -7.2678843 0.88854849 55
23.49078 -7.3221931 1.0098996 63
23.43269 -7.2605486 0.63108355 34
23.38508 -7.3082929 0.7863465 55
23.395767 -7.3440599 0.92010283 71
23.317503 -7.3685851 0.82386065 62
23.325302 -7.3529792 0.67291516 18
23.262243 -7.3964067 0.71643436 18
23.226246 -7.4273038 0.59983569 3
24.664623 -8.1785049 1.2486687 1
24.793303 -8.3756552 1.2351753 21
24.078959 -8.3374615 1.1347828 1
24.283661 -8.5571146 1.0807681 22
24.338228 -8.7170744 1.1062201 0
