# .PCD v0.7 - Point Cloud Data file format
VERSION 0.7
FIELDS x y z intensity
SIZE 4 4 4 4
TYPE F F F F
COUNT 1 1 1 1
WIDTH 167
HEIGHT 1
VIEWPOINT 0 0 0 1 0 0 0
POINTS 167
DATA ascii
23.676733 -8.6563578 0.95566392 40
23.543589 -8.4807119 0.97293806 44
23.841387 -8.841445 0.92606443 21
23.428486 -8.3102703 0.98241359 48
23.521235 -8.7110472 0.51705831 110
23.768909 -8.1816292 1.0682353 45
23.387697 -8.5346088 0.53752947 150
23.562548 -8.1404037 1.0475953 49
23.713139 -8.1210527 1.0618006 46
23.989994 -8.2225876 1.0808811 42
24.163202 -8.356389 1.0611362 38
23.51123 -8.1010103 1.0328869 50
23.933266 -8.1421757 1.0828476 42
23.344238 -8.1473141 0.97868675 56
24.046841 -8.1771173 1.0729568 40
23.388691 -8.1074314 1.0153929 55
24.315182 -8.5472336 1.0348893 28
23.343899 -8.0886354 0.9887619 57
23.675352 -7.9993019 1.0688962 50
23.190664 -8.3288336 0.59719467 47
24.229813 -8.2657833 1.0907022 40
23.474766 -7.9971209 1.0345747 55
23.267998 -8.0900888 0.95592517 55
23.912464 -8.0077667 1.088521 44
23.242222 -8.0963278 0.91309339 46
24.176497 -8.1665039 1.0968307 35
23.939154 -7.9979978 1.081475 43
24.399466 -8.7064323 1.0458188 11
23.213017 -8.0918264 0.86592633 43
23.188194 -8.1179056 0.81469291 44
23.30567 -8.0032187 0.98482168 58
23.289145 -7.9932294 0.96221161 58
23.220165 -8.0365515 0.89370036 40
23.168737 -8.0775652 0.7854327 43
23.157249 -8.0896511 0.77610987 48
23.130959 -8.1320429 0.71812314 66
24.057512 -7.979795 1.1568459 14
23.140076 -8.1776791 0.57542104 46
23.117666 -8.1154394 0.6770522 59
23.109272 -8.1575794 0.60300833 46
23.136366 -8.1743574 0.53192186 40
23.666166 -7.8239975 1.0795547 49
23.463364 -7.8404751 1.0417889 55
24.330563 -8.1528091 1.1597795 6
23.104038 -8.0829372 0.68766302 58
23.233782 -7.922781 0.87704676 25
23.838179 -7.8215804 1.0892833 42
23.296677 -7.8661942 0.98532015 62
23.139818 -7.9669671 0.78510517 44
23.863916 -7.8006635 1.1237682 19
23.095745 -8.0875769 0.57615238 29
23.124052 -8.1053152 0.50888997 21
23.099331 -8.0257874 0.66787791 57
23.267632 -7.8479986 0.92976052 57
24.538126 -8.3284416 1.0682313 41
23.093344 -8.0259018 0.55676961 18
24.050804 -7.7697196 1.1769835 0
23.262573 -7.7523761 0.8715874 56
23.170427 -7.8132463 0.77306688 80
23.109972 -7.8833723 0.65906858 82
23.072046 -7.9565315 0.5319531 16
23.359003 -7.6895256 0.96794021 77
23.290663 -7.7172604 0.8743583 64
23.751259 -7.6462545 1.0934196 37
23.498255 -7.6374502 1.0417734 66
23.099281 -7.8909225 0.51202232 48
23.677988 -7.5967484 1.095769 42
23.130724 -7.7837968 0.51761788 73
23.186092 -7.7005529 0.63493592 68
23.315969 -7.5841432 0.82145143 94
23.252932 -7.6190028 0.75029826 79
24.775984 -8.3602343 1.087804 13
23.801464 -7.5310073 1.1808875 4
23.352499 -7.5433731 0.84885359 79
24.754797 -8.233881 1.0894924 1
23.674791 -7.4738097 1.0948358 39
24.817888 -8.3691006 1.1957625 0
23.469475 -7.4709911 0.93873429 75
23.379261 -7.4598613 0.74934149 33
23.598545 -7.3999305 1.0213231 70
24.879183 -8.3364019 1.1743449 6
24.908728 -8.2596292 1.0999895 4
24.87499 -8.1027012 1.0706697 0
23.693117 -7.3291402 1.0488532 65
23.734674 -7.3272643 1.0999831 31
23.53521 -7.3637638 0.62936521 4
24.948977 -8.2246799 1.1367924 5
23.870279 -7.2506762 1.1797931 21
23.751431 -7.1970181 0.98420483 71
25.123295 -8.2047739 1.1975007 25
23.989691 -7.1645503 1.2699878 37
23.830458 -7.0685143 0.91105515 72
25.076885 -7.9688129 1.2361491 0
25.165215 -8.1317854 1.3235737 3
24.062452 -7.068068 1.2875693 62
24.097818 -7.0737729 1.365178 43
23.930475 -6.9414701 0.82827908 71
24.207087 -6.9545336 1.1828555 21
24.927307 -7.5620661 1.065096 1
24.761873 -7.3803253 1.4701668 19
24.237902 -6.9861646 1.4468503 47
24.921629 -7.5894108 1.4306221 3
24.618666 -7.2112808 1.5200934 38
24.610687 -7.1745205 1.5074897 37
24.901768 -7.5139508 1.5004939 22
24.039921 -6.814559 0.74510348 70
25.15008 -7.9711332 1.4041021 2
25.15691 -7.8926735 1.3491228 3
25.135506 -7.8150887 1.3666679 1
24.281185 -6.8172016 1.1181793 11
24.512081 -6.9837322 1.5238943 45
24.382895 -6.8973622 1.5241252 48
25.208639 -7.8033457 1.4735615 4
25.071058 -7.4514933 1.5684679 26
25.214977 -7.6965923 1.620121 4
24.771572 -7.1310573 1.596384 30
25.290667 -7.5553231 1.0391667 1
24.470894 -6.8099046 1.5160638 42
24.168732 -6.689508 0.65376741 69
24.297707 -6.6581764 1.084988 55
25.354759 -7.4198303 1.5849564 12
25.395157 -7.521769 1.6680249 1
24.556355 -6.8164644 1.5867618 18
25.042904 -7.0857358 1.617062 2
24.565187 -6.6762004 1.4409523 8
24.364822 -6.509294 1.0272372 85
24.284084 -6.5562816 0.57004237 68
25.461397 -7.383728 1.5981644 16
25.261374 -7.1581659 1.6584924 12
25.447985 -7.3234186 1.6922839 12
24.757336 -6.7387495 1.6391073 14
24.66975 -6.5383134 1.3641573 0
25.043606 -6.9264131 1.7285997 33
25.049551 -6.9523125 1.762344 25
24.472128 -6.3739367 0.95077437 78
24.990675 -6.7469592 1.7248434 11
25.520329 -7.2163305 1.8091499 1
25.290735 -6.8892875 1.7990839 10
24.611637 -6.2417402 0.86176163 75
24.797564 -6.4055948 1.2792398 0
24.872099 -6.6292958 1.7345152 7
24.760796 -6.5099525 1.8053272 11
24.789652 -6.2339182 1.2637414 0
24.749928 -6.1058168 0.77511454 72
25.039232 -6.4213781 1.6512538 11
24.923182 -6.0950675 1.181425 19
25.10075 -6.2678008 1.6001091 33
25.315201 -6.6131177 1.6742097 1
25.877539 -6.9231477 1.6787052 1
25.016176 -5.9469967 1.1210392 67
25.190056 -6.1174026 1.5396407 38
24.887383 -5.9681234 0.69074321 76
25.11994 -5.7935658 1.0577985 85
24.996023 -5.8156514 0.62519807 68
25.304199 -5.9727578 1.4685695 19
25.937889 -6.6428909 1.5330378 5
25.381054 -5.8141599 1.4195813 74
26.181934 -6.5559111 1.5719831 8
25.240236 -5.6437659 0.9902516 84
26.185774 -6.3997436 1.7209667 5
25.488024 -5.6581483 1.3585868 55
25.354874 -5.489089 0.92519152 82
25.573668 -5.4977317 1.3083224 51
25.509892 -5.3388996 0.8454504 69
25.738882 -5.3504276 1.2248936 42
25.699228 -5.1963825 0.74953032 56
25.945944 -5.2101693 1.1222786 13
