# .PCD v0.7 - Point Cloud Data file format
VERSION 0.7
FIELDS x y z intensity
SIZE 4 4 4 4
TYPE F F F F
COUNT 1 1 1 1
WIDTH 71
HEIGHT 1
VIEWPOINT 0 0 0 1 0 0 0
POINTS 71
DATA ascii
24.160189 -8.8147907 0.81390148 10
24.203657 -8.7283392 0.93612367 18
24.388121 -8.690361 0.98569781 21
24.612135 -8.6605368 1.0177553 22
24.53908 -8.5155621 1.0210912 22
24.677637 -8.7064352 1.0061935 15
24.399517 -8.3209686 1.0393234 38
24.816389 -8.619072 1.0610824 12
24.27211 -8.1277266 1.054381 40
24.152889 -7.9357152 1.067309 43
24.998877 -8.5634413 1.1182483 1
24.057768 -7.7534938 1.0709178 47
25.145191 -8.346652 1.1317369 4
25.194099 -8.2099218 1.0567049 19
23.986425 -7.5749826 1.0652325 52
23.963839 -7.4095831 1.036566 66
24.012226 -7.2653589 0.97400606 82
24.07782 -7.1241889 0.90180308 56
25.54661 -7.936707 1.3061838 5
25.433104 -7.7391205 1.3134303 1
24.327364 -7.1303315 1.2727695 12
24.165115 -6.9873424 0.82395566 70
25.00246 -7.2737384 1.4384801 0
24.313143 -6.9622192 1.2460245 19
24.89271 -7.0736957 1.4540256 17
25.639065 -7.4075208 1.6389915 5
24.263409 -6.8499231 0.74012393 69
24.248636 -6.7772908 1.2436589 47
24.706013 -6.8509874 1.5101837 42
24.508484 -6.6848311 1.0838335 50
24.377857 -6.713985 0.65207666 70
24.757868 -6.6960816 1.4538537 20
24.57362 -6.5330272 1.0230219 86
24.481054 -6.571558 0.571051 66
25.697916 -7.2578211 1.5726097 15
25.680162 -7.0801668 1.5446347 2
24.659777 -6.3824425 0.95258534 83
24.990824 -6.417439 1.2828395 0
24.769497 -6.2367425 0.87499171 81
24.897024 -6.0899563 0.78962404 72
25.185499 -6.5934539 1.7100259 11
24.978184 -6.3644176 1.7777233 20
25.344769 -6.8103404 1.6671981 22
25.056561 -6.0783806 1.2036334 9
26.262831 -6.6656246 1.6798624 0
25.024395 -5.9412065 0.70531487 78
25.256065 -6.262188 1.6223912 20
25.307619 -6.0974474 1.5732894 41
25.13661 -5.9184403 1.1460834 52
25.423927 -5.9453378 1.4980487 24
25.233515 -5.757628 1.0810083 85
25.510414 -5.7819443 1.4398123 22
26.294973 -6.4910178 1.6378198 3
26.386148 -6.3313036 1.570121 5
26.374146 -6.139576 1.5518844 14
25.13129 -5.7831688 0.63558424 82
25.327688 -5.5954809 1.0187063 88
25.271235 -5.6306591 0.55001491 7
25.57091 -5.6113381 1.3934864 88
25.436426 -5.4342461 0.95466757 82
26.250113 -5.9230418 1.5875584 24
26.172178 -5.7163129 1.6050512 30
25.549007 -5.2690253 0.88855237 78
25.679644 -5.4501042 1.3294476 73
25.759007 -5.2773924 1.2802292 34
25.696344 -5.1090956 0.80925077 71
25.907543 -5.1172385 1.2016462 46
26.249193 -5.5430589 1.5554097 26
26.159296 -5.3321948 1.5832331 24
25.890593 -4.9546442 0.71048468 55
26.072512 -4.9564095 1.1177216 2
