# .PCD v0.7 - Point Cloud Data file format
VERSION 0.7
FIELDS x y z intensity
SIZE 4 4 4 4
TYPE F F F F
COUNT 1 1 1 1
WIDTH 78
HEIGHT 1
VIEWPOINT 0 0 0 1 0 0 0
POINTS 78
DATA ascii
24.44912 -6.9266729 0.55794895 60
24.501646 -6.863883 0.68723965 75
24.561295 -6.7724423 0.54352999 67
24.556053 -6.8006597 0.81603211 79
24.618879 -6.6963792 0.67549276 79
24.688471 -6.5650601 0.53600442 63
24.670689 -6.6165228 0.80892956 78
24.615456 -6.7341876 0.94245249 79
24.093746 -7.3134003 0.53195453 5
24.758299 -6.4769516 0.66463864 80
24.739958 -6.5396247 0.93369168 83
24.60754 -6.6460247 1.1017699 53
24.819555 -6.3847146 0.79650801 82
24.041412 -7.5703959 0.63514936 31
24.822186 -6.4596906 1.0539967 73
24.974243 -6.6582255 1.0793177 18
24.885235 -6.2923889 0.92515111 85
24.927109 -6.2138977 0.64667332 78
24.007677 -7.6911936 0.69485325 100
25.010866 -6.4062934 1.1208736 21
24.992668 -6.108418 0.77831244 78
23.99238 -7.8137445 0.74664575 80
24.981981 -6.2029133 1.0405247 87
24.022427 -7.9468884 0.77634215 45
25.071016 -6.0059977 0.90353572 82
25.336821 -6.3834577 1.1231924 1
25.093094 -6.1170559 1.1470051 42
25.131639 -5.9045429 0.61577851 83
24.098803 -8.0915661 0.7867983 54
25.139584 -6.4131494 1.4738723 16
25.258574 -6.2550244 1.320143 0
25.168718 -5.9039493 1.0174928 87
24.159462 -8.2299051 0.80750227 35
25.239706 -6.0339589 1.2369891 3
25.21188 -5.7914815 0.7414282 84
25.812275 -6.7924409 0.82519662 7
25.231344 -6.3349743 1.5886 45
25.290665 -6.1492977 1.4657074 10
24.282471 -8.3829756 0.79860681 12
25.286806 -5.8022356 1.1240531 62
25.275272 -6.2405806 1.7249801 23
25.299206 -5.6757164 0.86416239 86
25.420874 -6.0681233 1.5641387 41
25.346046 -5.5449276 0.58591139 66
25.438148 -5.7078447 1.2137158 14
25.326683 -6.1464195 1.8573407 7
25.50877 -5.8521886 1.4313865 1
25.386292 -5.5578108 0.98383582 90
24.459299 -8.5548925 0.76444584 32
25.421637 -5.4196148 0.71265155 73
25.50161 -5.4434085 1.0909884 95
25.568893 -5.985774 1.6547953 15
25.629162 -5.7519927 1.537357 32
25.512728 -5.2916107 0.83220804 81
25.706263 -5.4966674 1.4101244 43
25.920542 -5.9499869 1.6533568 1
25.653999 -5.334476 1.1812603 92
25.743698 -5.6499739 1.6427755 18
25.615665 -5.1647334 0.94350439 89
26.324091 -6.2819271 1.563588 1
25.832222 -5.3857675 1.5103927 60
25.795031 -5.218935 1.274435 90
25.760637 -5.0422306 1.0376413 88
25.903076 -5.0939069 1.3833809 23
26.038879 -5.2874222 1.5762329 37
25.8944 -4.9160638 1.1326088 84
26.302057 -5.6406627 1.5502977 14
26.523521 -6.2151136 1.6347474 3
26.52817 -5.9668636 1.5399874 2
26.350746 -5.5145693 1.6882061 32
26.648685 -5.863708 1.6489971 16
26.077066 -4.7986431 1.2045293 44
26.134592 -4.9905167 1.4354261 12
26.410877 -5.2211752 1.5660533 28
26.343922 -4.691752 1.2369517 6
26.543879 -5.1005015 1.6654106 2
26.850584 -5.4806132 1.6283627 10
26.729092 -4.9529681 1.323892 1
