# .PCD v0.7 - Point Cloud Data file format
VERSION 0.7
FIELDS x y z intensity
SIZE 4 4 4 4
TYPE F F F F
COUNT 1 1 1 1
WIDTH 71
HEIGHT 1
VIEWPOINT 0 0 0 1 0 0 0
POINTS 71
DATA ascii
26.216284 -4.2860785 0.71142793 49
26.176689 -4.3462205 0.84547514 63
26.067583 -4.4342165 0.71995062 72
26.043171 -4.4547334 0.80203062 77
26.430382 -4.2783828 0.90237826 8
26.047941 -4.5372682 0.55050659 21
26.412165 -4.2944579 1.1161397 6
25.917646 -4.6314173 0.87303114 79
26.228971 -4.4623899 1.2093712 50
26.137236 -4.6441264 1.2633166 18
25.836763 -4.8116956 0.92515713 91
26.03463 -4.8214169 1.324193 89
25.756163 -4.9909763 0.97926283 90
25.979912 -5.0057411 1.3674474 97
26.552521 -4.6986618 1.5666767 43
27.035496 -4.5831203 1.3376901 1
25.67984 -5.1693535 1.0343068 88
26.571312 -4.8998156 1.572275 28
25.924797 -5.1871295 1.4118063 24
26.397442 -5.0637589 1.6681913 30
25.610123 -5.3461905 1.0876058 89
25.857399 -5.3654747 1.4645156 6
26.666195 -5.3134012 1.5696362 16
25.561642 -5.5271997 1.1333255 55
25.787277 -5.541523 1.5210118 21
26.727791 -5.523067 1.5651624 2
25.516834 -5.7033911 1.1811329 13
25.730364 -5.7144871 1.5740181 46
25.418053 -5.8650298 1.2542716 1
26.764044 -5.7266808 1.5744874 5
25.607588 -5.8727908 1.6596025 47
25.66078 -6.1088324 1.1707326 0
26.761993 -5.9192638 1.6050861 4
25.649296 -6.0650663 1.6715084 15
26.121895 -6.1458268 1.9518915 2
25.747581 -6.2724099 1.6594739 2
26.163311 -6.4215474 0.96208566 12
25.398745 -6.407547 1.363587 29
26.782084 -6.1167836 1.6268436 2
25.920172 -6.4998631 1.6178831 22
25.272861 -6.5537243 1.4601853 6
26.659569 -6.4644384 1.7506529 5
26.12726 -6.7354722 1.5632192 25
26.46624 -6.9213872 1.6182085 1
26.350185 -6.9765658 1.5034395 5
26.461611 -7.0745525 1.4733062 3
26.368444 -7.2048292 1.3626895 4
26.237612 -7.3552513 1.1319025 1
26.394266 -7.3637304 1.1995448 8
26.205898 -7.4586987 1.1330874 1
25.632244 -7.5750008 1.1025687 16
25.328033 -7.6194553 1.0958406 35
25.069962 -7.6743293 1.0699172 40
26.289911 -7.5477834 1.1555151 3
26.103201 -7.8319602 1.1527587 2
24.821941 -7.7287645 1.0382593 46
24.652208 -7.8012543 0.97391045 48
25.879461 -7.8956232 1.1045123 19
24.605421 -7.9081912 0.84676182 38
25.349697 -7.9808125 1.0549242 31
25.637278 -7.9485488 1.0682077 27
24.564167 -8.0167665 0.71507853 50
25.096407 -8.0202618 1.0286127 39
24.872513 -8.06388 0.98948622 43
25.824545 -8.2103872 1.1079255 2
25.648022 -8.2658033 1.0410269 13
25.443281 -8.3087597 0.99067914 21
25.2363 -8.3460894 0.94085455 22
25.163956 -8.4224529 0.82832038 9
24.765104 -8.1395454 0.89335573 19
24.90892 -8.2992687 0.67039782 24
