# .PCD v0.7 - Point Cloud Data file format
VERSION 0.7
FIELDS x y z intensity
SIZE 4 4 4 4
TYPE F F F F
COUNT 1 1 1 1
WIDTH 106
HEIGHT 1
VIEWPOINT 0 0 0 1 0 0 0
POINTS 106
DATA ascii
24.579245 -7.4420977 0.65110064 23
24.607267 -7.3784108 0.78664678 84
24.686111 -7.3105936 0.62043393 10
24.628094 -7.3319764 0.79508048 92
24.617414 -7.4769659 0.83590126 108
24.673731 -7.220448 0.78378701 58
24.667919 -7.1941276 0.74155605 21
24.636387 -7.6269255 0.86386138 44
24.679075 -7.326333 0.90054905 109
24.632652 -7.1728101 0.5313589 4
24.738249 -7.1033783 0.63620067 6
24.747435 -7.0629001 0.67152828 11
24.662413 -7.7762642 0.89099801 18
24.749367 -7.1501803 0.9005903 101
24.774965 -7.2754726 1.004032 91
24.777559 -7.0116396 0.77567017 62
24.83597 -7.0823207 1.012488 101
24.833551 -6.9300895 0.59975576 12
24.736042 -7.9374695 0.89859968 45
24.908195 -7.2307205 1.0905885 54
24.85174 -6.9294448 0.89373839 84
24.852537 -6.8563476 0.63002992 45
24.952717 -7.0172586 1.1113671 38
24.868782 -6.7793994 0.55657321 46
24.8281 -8.1012468 0.89727753 31
25.052219 -7.185432 1.1743118 7
24.917902 -6.7581148 0.75743508 79
24.941677 -6.8455696 1.0086945 71
25.036667 -6.9398594 1.2259049 2
24.975658 -6.6536374 0.88985157 84
25.054756 -6.7631373 1.11348 19
25.019186 -6.567842 0.60653216 89
25.070765 -8.3125896 0.82407761 14
25.004519 -6.5420027 1.0359386 70
25.066153 -6.4507365 0.74574476 88
25.095156 -6.6597924 1.2514869 45
25.172287 -6.4602466 1.1140209 16
25.126627 -6.3363633 0.87732559 88
25.246725 -6.5820684 1.3369583 41
25.170954 -6.2246461 0.59243363 76
25.202511 -6.2211294 0.99969506 91
25.345654 -6.4887004 1.4463406 47
25.23439 -6.1003637 0.72414571 82
25.328503 -6.1159325 1.0977095 62
25.283339 -5.9702654 0.85854113 79
25.481977 -6.399466 1.5408219 55
25.811121 -6.7101235 1.4876136 21
25.435877 -6.0040541 1.2036142 9
25.366859 -5.8449793 0.97878331 89
25.52623 -6.1599178 1.4197189 5
25.616196 -6.3075604 1.6337544 18
25.958109 -6.6295829 1.5783834 29
25.496914 -5.8780985 1.3317969 1
26.195312 -6.5894451 0.77772981 10
25.59325 -6.0406494 1.5443561 39
25.470629 -5.7216358 1.0854838 78
26.26273 -7.0315113 1.3818299 0
26.226795 -6.462996 0.92707878 15
25.639788 -5.7686577 1.4212064 0
26.360651 -6.9499269 1.496794 10
25.983896 -6.2665219 1.6238688 3
25.642141 -5.9146743 1.6788182 49
26.256422 -6.5832286 1.6000216 14
25.600548 -5.6010222 1.1802077 22
26.140818 -6.2788887 1.7080534 17
25.786461 -5.6551785 1.5085387 18
26.084209 -6.1595621 1.7347815 25
26.069416 -6.0771847 1.7014225 26
25.906366 -5.8551564 1.7360828 1
25.94511 -5.8464117 1.6937907 3
25.71442 -5.4752069 1.2831993 1
26.458187 -6.8622699 1.6117817 10
25.960054 -5.6790061 1.6774086 4
25.918201 -5.5360813 1.6007377 42
26.541233 -6.7451258 1.6185405 6
26.554586 -6.5620294 1.566198 11
25.912949 -5.3630786 1.3445768 0
25.994417 -5.4995236 1.6289215 16
26.569338 -6.5365939 1.6209368 12
26.441343 -6.1068721 1.7316474 9
26.588507 -6.4129052 1.7694063 10
26.409849 -5.80689 1.6399292 0
26.08622 -5.4193888 1.6793443 7
25.976046 -5.2190194 1.4688882 43
26.013714 -5.3126431 1.5904783 38
26.054029 -5.129817 1.5434886 56
26.106951 -5.0897551 1.5591103 55
26.1201 -4.9489336 1.4877191 37
26.77994 -6.0445385 1.739441 1
26.875923 -5.7600513 1.5897578 5
26.754148 -5.4022422 1.5343611 3
26.335453 -4.9731784 1.6053537 22
26.174086 -4.7660565 1.4402543 14
26.996 -5.684701 1.6824657 1
26.952309 -5.6251807 1.7117476 4
26.255476 -4.5836916 1.383557 0
27.084202 -5.5053096 1.6126562 5
26.927395 -5.2791076 1.6104832 20
26.977585 -5.2870035 1.6284646 10
26.738531 -4.8861341 1.5742555 25
26.391729 -4.4092507 1.302271 1
27.025515 -5.0972638 1.5804273 24
26.750227 -4.6511269 1.6550351 3
26.973621 -4.8882332 1.5779039 27
26.873585 -4.744575 1.6632349 2
27.182594 -5.1685448 1.6518835 5
