# .PCD v0.7 - Point Cloud Data file format
VERSION 0.7
FIELDS x y z intensity
SIZE 4 4 4 4
TYPE F F F F
COUNT 1 1 1 1
WIDTH 101
HEIGHT 1
VIEWPOINT 0 0 0 1 0 0 0
POINTS 101
DATA ascii
25.554758 -8.2813377 0.95667058 1
25.693663 -8.2594995 0.9758929 2
25.714365 -8.2592993 1.0262946 2
25.512642 -8.0971937 0.98520958 26
25.570213 -8.0722132 0.98846358 26
25.768373 -8.0896978 1.0122753 24
25.306984 -8.1171093 0.93588144 21
25.251322 -8.1823473 0.81577909 15
25.389915 -8.2470398 0.600389 39
25.420227 -7.8701048 1.0181464 37
25.439976 -7.8431668 1.040579 35
25.711882 -7.8215094 1.0611806 27
25.992632 -8.0653629 1.0556517 13
25.190042 -7.8656192 1.0101008 41
25.123814 -8.1284056 0.59008992 95
25.015562 -7.9076719 0.94666684 43
25.292824 -7.6748533 1.0388968 42
26.004852 -7.8020368 1.0752616 27
24.966171 -7.9866838 0.82198226 24
26.146151 -8.0134277 1.1368613 1
24.933254 -7.9483175 0.78777039 22
25.428343 -7.5480628 1.0784694 41
26.208887 -7.8865871 1.1138146 3
25.714254 -7.5158353 1.0932184 37
25.166882 -7.5855408 1.0511831 46
26.171045 -7.7154894 1.0907333 18
26.202684 -7.7465754 1.1386331 8
24.852554 -7.9182386 0.59352469 38
24.955305 -7.6334782 1.0026929 51
25.180798 -7.486249 1.055701 49
24.827068 -7.8085899 0.75915748 43
24.8465 -7.7677007 0.78874993 39
24.864651 -7.7141762 0.89295954 23
26.06703 -7.5217757 1.1022799 29
26.118139 -7.508357 1.0587733 31
24.769659 -7.7410069 0.50980103 15
26.062141 -7.3550959 1.0675244 0
24.759087 -7.5884585 0.79405177 43
25.0998 -7.303494 1.060317 54
25.164646 -7.2556329 1.091382 50
24.706833 -7.6058311 0.69731563 80
25.387327 -7.190721 1.1367722 18
24.758623 -7.5039697 0.82731295 57
24.837856 -7.4086566 0.94296622 51
24.950457 -7.3185506 1.0437486 66
24.736574 -7.4271431 0.76810479 97
26.43791 -7.4722729 1.0646168 6
25.034904 -7.1240401 1.0586913 64
24.688774 -7.4058814 0.5901612 57
24.736898 -7.2907581 0.72613204 65
24.74441 -7.2718873 0.73118621 76
24.806536 -7.1823592 0.8451817 99
24.885456 -7.1545668 0.62676662 16
26.524292 -7.3632088 1.1834112 3
24.904667 -7.0773277 0.95267791 98
25.018576 -6.9754324 1.0488461 75
25.013805 -6.9565759 1.0395403 89
26.537359 -7.2319417 1.3335382 1
25.127768 -6.8656049 1.1502913 10
24.890936 -6.9918966 0.5955475 4
25.039982 -6.799058 0.9977951 113
25.16597 -6.7372289 1.284572 1
25.39159 -6.6532025 1.3300054 0
25.323839 -6.6468577 1.332155 1
26.809999 -7.1686234 1.3658731 0
25.087017 -6.6427474 0.94957393 81
26.218092 -6.7249484 1.5156463 0
25.550718 -6.5485463 1.4070736 11
25.125267 -6.4825368 0.9077394 83
25.327183 -6.4777517 1.3065906 57
25.749979 -6.4495082 1.466467 11
26.366117 -6.5715952 0.7835778 6
26.460028 -6.6383047 1.5609158 27
25.199415 -6.3300166 0.85039842 89
26.329971 -6.381712 0.78361171 9
25.254852 -6.168941 0.80612445 86
25.845871 -6.3233581 1.5722388 40
26.645405 -6.5335379 1.6290464 13
25.968597 -6.1998453 1.6648163 2
26.761671 -6.40978 1.7295136 0
25.516922 -5.9998202 1.1573627 11
25.323668 -6.0067239 0.75730258 86
26.18527 -6.0944667 1.7154467 25
25.528954 -5.8249507 1.1377263 37
25.392056 -5.8447046 0.71066493 88
26.894512 -6.2859883 1.8204751 15
25.56394 -5.6518192 1.1110696 69
25.468954 -5.6797071 0.66279721 86
26.276419 -5.9570704 1.8212966 17
26.900511 -5.9382944 1.6949846 1
25.608789 -5.4784226 1.0818301 93
25.542446 -5.5126243 0.61993241 86
25.672781 -5.3064895 1.0434624 97
25.615318 -5.3416314 0.57821727 78
25.744564 -5.1370678 1.0082538 98
25.806925 -4.9586735 0.97747499 102
25.888458 -4.7850518 0.9427678 109
25.956507 -4.6086392 0.91569185 100
26.03891 -4.4298782 0.88483226 94
26.149851 -4.2534986 0.84343249 91
26.313511 -4.0847611 0.77798748 51
