# .PCD v0.7 - Point Cloud Data file format
VERSION 0.7
FIELDS x y z intensity
SIZE 4 4 4 4
TYPE F F F F
COUNT 1 1 1 1
WIDTH 132
HEIGHT 1
VIEWPOINT 0 0 0 1 0 0 0
POINTS 132
DATA ascii
26.383881 -4.0120487 0.59864712 14
26.169861 -4.1742783 0.68628502 77
26.055836 -4.3526592 0.72930914 58
26.318914 -4.1675696 1.1041166 19
26.195795 -4.3439851 1.1505328 86
25.961025 -4.5306325 0.76523083 28
26.123339 -4.5258107 1.1754754 105
26.748999 -4.3378639 1.2889236 1
26.278238 -4.4162207 1.3478051 1
26.150047 -4.5501904 1.25143 79
25.861704 -4.7047572 0.807464 57
26.023027 -4.6827707 1.152667 91
26.045885 -4.7049713 1.2078996 102
27.086235 -4.2289414 1.2925899 0
25.904858 -4.815177 1.0474509 92
25.816641 -4.8895187 0.82526642 100
26.382652 -4.6277604 1.5593466 40
26.686693 -4.527771 1.5779938 46
25.804968 -4.9473906 0.93538272 96
25.981997 -4.8850231 1.2347175 80
26.20842 -4.747992 1.4810859 26
26.078972 -4.8739572 1.3828913 106
25.752407 -5.0656471 0.85420179 94
25.989431 -5.0026255 1.2649752 8
25.744982 -5.0823088 0.80359209 90
25.923847 -5.0618038 1.2620656 6
25.839632 -5.1180325 1.1751024 57
25.673512 -5.2157149 0.67375875 87
26.486155 -4.97965 1.6133535 24
26.818899 -4.8955231 1.6225823 31
25.675287 -5.2369194 0.8947292 90
25.718321 -5.2348084 1.0715835 92
26.150291 -5.0573673 1.6059093 39
26.041513 -5.1772242 1.4950073 21
25.850883 -5.2351494 1.300493 0
27.20396 -4.8175454 1.6119763 14
25.858574 -5.2790055 1.4198724 0
25.633995 -5.3590603 0.94915754 92
25.833534 -5.4096642 1.2716566 0
25.838655 -5.4227195 1.3117979 0
25.591593 -5.3454199 0.54765815 53
25.58816 -5.4076076 0.94200557 90
25.556715 -5.4815989 0.82280278 90
25.677723 -5.5110784 1.183215 20
25.503897 -5.6063838 0.68283111 90
25.524624 -5.580935 0.98003298 95
26.134066 -5.3513732 1.7061723 4
26.777746 -5.350172 1.5811057 1
25.976446 -5.4512491 1.6202557 36
27.022358 -5.115376 1.7927766 2
25.554518 -5.6169219 1.0780139 87
25.779587 -5.5949745 1.3476114 0
25.856035 -5.5574274 1.5132935 23
27.110748 -5.2774043 1.5934827 11
25.71414 -5.6534529 1.4180536 1
25.438736 -5.727901 0.54709107 69
25.449339 -5.7225804 0.96499228 91
25.397829 -5.7872643 0.55323017 77
25.448177 -5.7482443 1.026547 93
25.648773 -5.7659373 1.2853771 16
25.393017 -5.8380175 0.8279103 86
25.694975 -5.7622514 1.3993629 1
26.518646 -5.7138867 1.6277976 1
25.538458 -5.8626728 1.1767112 16
25.884787 -5.696435 1.7501049 10
25.733515 -5.7834363 1.659295 51
25.707918 -5.8978267 1.5110613 37
27.023945 -5.56071 1.7286495 1
26.943939 -5.677628 1.6008828 5
25.347649 -5.9538212 0.68383074 85
25.403193 -5.922534 1.0617946 85
25.325397 -5.9558468 0.60180801 88
25.411377 -5.9540787 1.07341 80
25.6675 -5.9385276 1.4269478 6
25.293543 -6.0635281 0.54404432 72
25.308926 -6.0459352 0.96263701 91
26.364006 -5.932137 1.7872957 19
26.155367 -5.9999447 1.7206095 27
25.929152 -6.0596786 1.6625769 3
25.649626 -6.1146002 1.4509828 38
25.372076 -6.0945706 1.0913231 54
26.34417 -6.1704693 1.0516485 6
25.698439 -6.1134191 1.6087623 40
25.661882 -6.2313538 1.0468374 20
25.573334 -6.1910505 1.5048078 50
25.26288 -6.1210804 0.64672261 88
25.261946 -6.1519585 0.82094795 88
25.284603 -6.2455597 1.06613 62
25.362955 -6.268683 1.114082 19
26.332705 -6.2863531 0.89146 13
25.208801 -6.2512436 0.68183792 88
25.673857 -6.3224268 1.2978905 30
25.557764 -6.2686524 1.5148358 52
26.91419 -5.9389644 1.7064211 1
25.188437 -6.2790914 0.7008881 89
25.191229 -6.3280129 0.94978309 89
25.155231 -6.348577 0.54281867 75
25.139299 -6.4168682 0.81231588 85
25.125477 -6.4386158 0.75309688 88
25.627035 -6.4630909 1.5038453 1
25.134615 -6.3818159 1.246321 42
25.119305 -6.3788438 1.2430629 44
25.102045 -6.5083594 0.6679337 84
25.131977 -6.4769363 1.0774095 42
25.099325 -6.5622478 0.93176067 93
25.240395 -6.5849109 1.2175938 63
25.061882 -6.595211 0.80544204 85
25.050949 -6.5918999 0.53019571 60
25.0466 -6.6381559 0.79850626 82
26.334215 -6.5981336 0.81876236 6
25.284483 -6.7680917 1.2213479 0
24.985092 -6.7089548 0.66853166 52
24.989868 -6.7458782 0.86716729 87
24.948523 -6.9045391 0.91371 116
24.917082 -7.0620031 0.95868242 107
25.544323 -7.1808643 1.1564907 1
24.8946 -7.218483 1.002333 91
25.738878 -7.4052153 1.0964711 34
24.916033 -7.3869929 1.0253077 70
24.700464 -7.397696 0.62492692 84
26.532154 -7.2361894 1.1662403 5
26.498322 -7.3995671 1.2170677 1
24.997467 -7.5709229 1.0213641 53
25.845081 -7.6017632 1.0830721 30
24.696684 -7.5559344 0.66163361 86
25.102858 -7.7625809 1.009161 45
24.745258 -7.7273932 0.67650121 47
25.97893 -7.807147 1.0583904 26
24.864826 -7.919558 0.65335608 44
25.245995 -7.9616857 0.9809522 38
26.050898 -7.9916353 1.0662353 11
25.469187 -8.1877594 0.91552401 20
