# .PCD v0.7 - Point Cloud Data file format
VERSION 0.7
FIELDS x y z intensity
SIZE 4 4 4 4
TYPE F F F F
COUNT 1 1 1 1
WIDTH 119
HEIGHT 1
VIEWPOINT 0 0 0 1 0 0 0
POINTS 119
DATA ascii
26.688122 -4.0324993 0.73564291 25
26.591011 -4.2077036 1.2402047 10
26.195108 -4.1572738 0.95429718 75
26.095322 -4.3378787 0.9903242 97
26.25569 -4.314734 1.239556 40
26.117298 -4.4489918 1.1454316 89
26.010117 -4.5159345 1.0235339 102
26.493639 -4.3890495 1.5454166 24
25.985758 -4.5806098 1.0515438 96
26.317698 -4.5135813 1.4713044 28
26.146177 -4.6348076 1.3928854 57
25.938263 -4.6967969 1.0522629 87
25.898123 -4.7273107 0.57942551 12
25.885029 -4.7133904 0.94031423 103
26.976145 -4.6557612 1.593789 27
26.661299 -4.7529969 1.5752335 29
26.056654 -4.7677383 1.2756259 105
25.794521 -4.8485298 0.82127756 88
25.868088 -4.8742452 1.0825651 101
25.930292 -4.8897381 1.1781739 102
26.256359 -4.8262749 1.6005553 56
25.776592 -4.897542 0.63545746 21
26.110786 -4.9427648 1.5080452 74
25.734682 -4.9830465 0.69007689 75
25.818089 -5.0129719 1.0687671 100
26.817144 -5.0942473 1.6098701 17
27.082687 -4.9985423 1.6537448 13
25.807581 -5.0524769 1.1124212 93
25.991613 -5.0627308 1.4035134 6
25.714682 -5.077198 0.6667344 91
25.723934 -5.1378407 0.95363265 92
25.873428 -5.1773539 1.2996782 2
25.746883 -5.2277656 1.1443496 66
25.659323 -5.2530684 0.69417417 88
25.652365 -5.2628269 0.8232879 89
26.27121 -5.1324687 1.6901461 2
26.071686 -5.2298808 1.6207625 26
27.118111 -5.1742997 1.8952012 1
25.766151 -5.2941184 1.18682 26
27.101227 -5.3098965 1.7403802 1
25.954617 -5.3409443 1.512447 23
26.682358 -5.4969144 1.5984087 1
27.018223 -5.4306192 1.6150303 6
25.858154 -5.4529586 1.3966888 0
26.116972 -5.5115418 1.6916884 3
25.705147 -5.4054399 1.1692884 39
25.643259 -5.4036393 1.0820717 89
25.590599 -5.3903761 0.68732029 90
25.574654 -5.4224081 0.74158686 88
25.551426 -5.5174422 0.96202826 91
25.652065 -5.5780444 1.2043542 12
25.523251 -5.5132351 0.55480689 67
25.494682 -5.5905776 0.78775316 89
25.60523 -5.652257 1.1908319 16
25.90653 -5.5911369 1.6259291 36
25.488359 -5.6320782 0.82930672 85
25.798664 -5.6906433 1.5150334 24
25.598545 -5.7477188 1.2405241 1
26.294842 -5.7960491 1.7021443 1
25.686626 -5.7840314 1.406171 1
25.491297 -5.7502384 1.0825354 82
25.419203 -5.7587528 0.83481193 88
25.433689 -5.7475681 0.69130212 84
25.97361 -5.9664235 1.1053935 1
25.400974 -5.8514109 0.9639774 90
25.877594 -5.9940529 1.1226455 1
26.997196 -5.6985865 1.7175671 1
26.871931 -5.7982101 1.6091559 6
25.37665 -5.8594322 0.55179489 70
25.760624 -5.797482 1.7808746 23
25.745327 -5.9070945 1.6283507 43
25.547279 -5.9857626 1.1448072 17
25.360367 -5.926856 0.87648338 89
25.67909 -6.0030127 1.4972131 40
25.34725 -5.9562731 0.8234973 90
25.367134 -6.0557065 1.0699465 68
25.305199 -6.0632324 0.67689657 88
25.290411 -6.0877237 0.92715758 91
26.235909 -6.2372293 1.0739242 16
25.283169 -6.143878 0.9474625 89
25.249889 -6.1634393 0.53882855 69
25.527679 -6.2806578 1.0830094 20
25.238178 -6.2393613 0.80455995 84
25.495811 -6.2622452 1.3412313 3
26.316195 -6.2743597 0.93253809 14
25.242901 -6.2541823 0.96894419 96
25.186672 -6.3303866 0.66536164 84
25.250277 -6.311028 1.0557326 68
26.338461 -6.3685503 0.85989505 15
25.412191 -6.4124422 1.4025552 46
25.175085 -6.3878455 0.93285239 86
25.156715 -6.4050679 1.0319827 82
25.117937 -6.4563756 0.54876345 83
25.124907 -6.4664321 0.7982899 85
25.510481 -6.6092868 1.3797913 0
25.165094 -6.5777669 1.0499445 57
25.092678 -6.5474663 0.65286857 80
25.051659 -6.6125526 0.60564333 76
25.136889 -6.7426548 1.0897603 110
24.974442 -6.7644382 0.6694532 41
25.122778 -6.9040332 1.125838 19
24.902172 -6.9120049 0.73190463 36
25.219355 -7.0944419 1.1106634 24
24.856359 -7.0642142 0.78543985 64
25.331814 -7.2879539 1.0882792 47
26.471159 -7.372282 1.0200521 2
24.814789 -7.2133079 0.83781976 103
25.435934 -7.4786386 1.0732038 44
24.812916 -7.3737969 0.87275016 73
26.386194 -7.517365 1.0971574 16
26.368515 -7.6780596 1.1444954 2
24.834478 -7.5345316 0.89949006 47
25.549013 -7.6703262 1.0588992 39
24.897589 -7.7081666 0.90625596 37
24.994368 -7.8896937 0.90019786 39
25.688026 -7.8676682 1.0327302 34
25.224466 -8.1119223 0.83300847 12
25.841576 -8.0707073 1.003878 25
25.801727 -8.2108335 1.0711787 0
