# .PCD v0.7 - Point Cloud Data file format
VERSION 0.7
FIELDS x y z intensity
SIZE 4 4 4 4
TYPE F F F F
COUNT 1 1 1 1
WIDTH 112
HEIGHT 1
VIEWPOINT 0 0 0 1 0 0 0
POINTS 112
DATA ascii
25.036535 -6.6000772 0.56616271 80
25.075018 -6.523582 0.70968658 83
25.129314 -6.3936138 0.58310443 79
25.110832 -6.4435673 0.85389149 83
25.170902 -6.3053293 0.72781843 83
25.173166 -6.3679709 0.98704112 92
25.244499 -6.1407595 0.59805876 86
25.221216 -6.215064 0.86713755 87
25.304625 -6.0414186 0.73785782 87
25.278801 -6.3020511 1.0964999 49
25.292965 -6.1272697 0.9977529 89
25.350178 -5.9370356 0.8824783 89
25.379858 -5.8389726 0.6126278 85
25.397577 -6.0474191 1.1105028 51
25.341764 -6.5515814 1.4204583 37
25.441328 -6.7599506 1.411047 1
25.42536 -5.8392353 1.0100733 92
25.456827 -5.7327247 0.74177486 85
25.730358 -6.1130352 1.1353661 1
25.497608 -5.9605155 1.2275168 4
26.00312 -6.4043617 0.90738958 10
25.512234 -5.868135 1.2128376 5
25.508074 -5.6159587 0.88587046 88
25.525635 -5.7411432 1.1290252 59
25.604637 -6.0832558 1.4275892 6
26.144205 -6.6001177 1.0017782 12
25.575266 -5.8652549 1.3544768 2
25.586411 -5.7015123 1.1511396 22
25.563454 -5.5009522 0.60299063 86
26.286459 -6.4527283 0.89858466 13
25.593817 -5.5067401 1.0106355 90
25.67309 -5.6548796 1.2212175 7
26.286711 -6.376873 0.93634713 3
25.65764 -5.9892592 1.5641136 46
25.619991 -5.5214858 1.1103379 70
25.768538 -6.2660146 1.6472163 5
25.635366 -5.381577 0.73545843 91
25.723501 -6.0713692 1.6362245 23
25.70439 -5.7810092 1.4556149 5
25.970507 -6.5048389 1.5894465 38
25.713829 -5.882287 1.6108304 56
25.69676 -5.3986602 1.1236652 75
26.140955 -6.7374787 1.5492014 25
25.698061 -5.5325279 1.3742298 0
25.679701 -5.3450789 1.0616778 90
25.681572 -5.8853569 1.7144002 42
25.797813 -5.7166076 1.5455364 41
25.694651 -5.2557735 0.87326145 91
25.827929 -5.69206 1.5633591 42
25.85635 -5.5443425 1.4930739 15
25.745295 -5.1143041 0.59354782 13
25.741613 -5.1672821 1.0145001 90
25.818827 -5.2936387 1.2306731 14
25.77051 -5.1303182 1.0015597 96
25.873604 -5.4473357 1.4559731 4
26.125854 -5.8849654 1.6745479 1
25.968727 -5.60326 1.6603804 17
25.818497 -5.3445301 1.4894755 1
25.79497 -4.9773569 0.73587292 22
25.810997 -4.9898553 0.96330196 99
25.967072 -5.1889296 1.3246237 4
26.236176 -6.173492 1.898456 21
26.01042 -5.3471746 1.5550079 40
25.983164 -5.1889505 1.3938055 18
25.881887 -5.0123878 1.1143963 100
25.857494 -4.8405681 0.87070268 82
26.470753 -7.0178204 1.4385469 5
26.300604 -7.3782544 1.0881474 0
26.193993 -7.6980548 1.2325822 0
26.133232 -5.2409773 1.6618118 15
26.053953 -5.0681486 1.4469594 88
26.026529 -5.0070934 1.3555973 103
26.469841 -5.5985603 1.5952863 1
25.878279 -4.8090768 0.91883874 91
26.022799 -4.8969264 1.2091738 98
26.368378 -7.5776749 1.1014826 7
26.545763 -7.2227125 1.4469163 0
25.968302 -4.7124496 0.98156196 91
26.089888 -4.8251548 1.3131894 112
25.967705 -4.6305776 0.86445332 84
26.208437 -4.9589148 1.5361512 44
26.114388 -4.7688813 1.3271356 66
26.615965 -5.5043459 1.6205914 5
26.724297 -5.9171844 1.5686665 3
26.786951 -6.1266599 1.6226797 4
26.350967 -5.051425 1.6988488 30
26.712984 -6.4878545 1.7215809 11
26.086826 -4.5835352 1.0862635 91
26.18215 -4.6460533 1.2580568 21
26.569622 -5.2045312 1.6248643 17
26.818602 -5.9407687 1.5792496 6
26.078835 -4.4545484 0.80233097 81
26.297499 -4.6573997 1.4026141 10
26.84234 -5.7546978 1.5420232 3
26.909374 -5.8413553 1.6510653 4
26.768967 -5.3421383 1.530008 5
26.915653 -5.5746093 1.5600741 4
26.448687 -4.8656607 1.5895321 42
26.567652 -4.9030948 1.5864955 28
26.235037 -4.4602184 1.1749524 55
26.258402 -4.4644504 1.2122717 50
26.230577 -4.2819052 0.72338945 54
27.063169 -5.4734073 1.6604406 11
26.599895 -4.7096815 1.5594065 48
26.851677 -5.1256409 1.6611738 32
26.509111 -4.3551135 1.2059705 44
26.450346 -4.2993183 1.1156095 17
26.822285 -4.7960858 1.5812448 29
27.074345 -5.3387465 1.8190621 4
27.238926 -5.0636363 1.6545253 3
27.081331 -4.662755 1.2046186 1
27.211672 -4.6317916 1.2716209 2
