# .PCD v0.7 - Point Cloud Data file format
VERSION 0.7
FIELDS x y z intensity
SIZE 4 4 4 4
TYPE F F F F
COUNT 1 1 1 1
WIDTH 134
HEIGHT 1
VIEWPOINT 0 0 0 1 0 0 0
POINTS 134
DATA ascii
24.518459 -8.1731176 0.6207239 78
24.52099 -8.1109467 0.59761631 55
24.513365 -8.1749458 0.54765129 78
24.545387 -8.1339417 0.74553198 85
24.519552 -8.3162212 0.59319055 72
24.544348 -8.0534048 0.72934401 82
24.600424 -8.0089474 0.55184686 3
24.598387 -8.0995531 0.85633719 63
24.574427 -7.9166331 0.71261531 38
24.600519 -8.0020409 0.8432529 89
24.577858 -8.4723587 0.61389726 25
24.670324 -8.0677729 0.9601528 53
24.69993 -8.1427794 0.97293639 47
24.660545 -7.989255 0.9452405 92
24.621479 -7.8452764 0.83797818 89
24.679106 -7.9533868 0.94719452 93
24.658926 -7.846067 0.90261906 104
24.762882 -8.301918 0.99246383 50
24.643869 -7.7280788 0.69841319 16
24.788103 -8.0461349 1.0396881 56
24.730368 -8.6565237 0.58858013 27
24.706974 -7.7818933 0.94510609 107
24.677387 -7.7040925 0.85062033 101
24.790813 -7.912065 1.0373904 63
24.864687 -8.4719706 0.9926523 46
24.69195 -7.6402001 0.82641101 90
24.755999 -7.6101966 0.5136494 5
24.712639 -7.5651889 0.7911638 84
24.991766 -8.0495996 1.0805075 48
24.805819 -7.718339 1.0466737 89
24.986259 -7.894156 1.0863092 47
24.753036 -7.4942532 0.67431313 42
24.780775 -7.5627856 0.93457121 116
25.01613 -8.6545801 0.97276199 37
24.768019 -7.4286623 0.72543532 77
24.928188 -7.6592407 1.136966 16
24.807522 -7.3916655 0.80356222 87
25.244867 -8.0624933 1.0992011 41
24.863634 -7.4786649 1.0462772 100
25.140503 -7.7703581 1.1302812 5
24.819157 -7.3153934 0.52257174 54
25.233931 -7.8881454 1.1134341 20
24.834169 -7.2926192 0.65586072 84
24.915613 -7.5490885 1.1999409 1
25.322006 -7.9769034 1.0862713 33
24.87014 -7.2900424 0.92656195 90
25.412897 -8.1525631 1.0883468 39
24.952131 -7.4079771 1.1432279 53
24.874989 -7.2043271 0.6524055 73
24.954725 -7.3925505 1.1547725 53
25.27219 -8.8751202 0.90527409 15
24.895346 -7.1508107 0.59268916 89
25.528099 -8.0804396 1.1069683 36
24.965952 -7.2561026 1.0985323 21
25.476883 -7.8742089 1.145836 0
25.566717 -8.3447285 1.0648491 27
24.916098 -7.1792555 1.0589789 40
24.923691 -7.0858026 0.78607941 80
25.040052 -7.3016896 1.2657553 42
24.939615 -7.0020013 0.5400601 81
24.869673 -7.0691476 1.1142719 69
24.972397 -6.9651303 0.91766125 85
25.725653 -8.540864 1.0410933 28
24.872068 -7.0393457 1.2342383 45
25.15218 -7.2165656 1.3646241 41
25.012486 -6.9502249 1.0103675 92
25.351561 -7.3025131 1.4158117 0
25.047876 -6.8511801 1.0361155 80
25.835644 -8.7163525 1.0433366 11
25.053129 -6.7983613 0.96278697 95
25.223549 -7.10566 1.4407716 17
25.253197 -7.1239014 1.468376 5
25.971935 -8.145175 1.0422541 27
25.27685 -6.9607282 1.3827237 23
25.101088 -6.6437387 0.91325861 89
25.236689 -6.7645507 1.0973265 24
25.528387 -7.076684 1.4919478 23
25.448153 -6.8080215 1.4167219 30
25.154663 -6.4887681 0.86122137 88
25.46167 -6.6834064 1.141905 2
25.672602 -6.9898911 1.5772327 38
26.206022 -8.1834259 1.1830355 1
26.215256 -8.1394567 1.0767244 19
26.189278 -7.9007196 1.1117034 0
26.213053 -7.878931 1.0886848 0
25.992109 -7.0955257 1.0017926 13
25.443104 -6.6686273 1.5704165 57
25.309126 -6.470891 1.2847388 1
25.416962 -6.5272312 1.3171465 1
25.21839 -6.3346667 0.81067407 86
25.983885 -6.9942884 1.013081 17
26.127583 -7.2712054 0.77925253 5
25.360268 -6.3126292 1.2384691 3
26.310301 -8.0642309 1.08611 6
26.308697 -8.0815239 1.18494 1
26.343122 -7.8424902 1.1958398 3
26.13341 -7.355022 1.4806268 11
25.80368 -6.893054 1.6699693 3
26.415415 -7.6461816 1.4681771 1
25.28056 -6.1747303 0.75943255 87
25.441326 -6.389782 1.4559324 6
25.528406 -6.5510855 1.681089 23
26.12752 -6.8621688 0.91604125 10
26.268993 -7.2694368 1.5723184 19
25.436365 -6.1574187 1.1795038 16
25.348665 -6.0146089 0.71076864 88
26.470894 -7.7751751 1.2897931 5
25.555244 -6.418087 1.8172137 24
25.58313 -6.2767777 1.5394704 44
26.438229 -7.1880183 1.6511199 5
26.288708 -6.8889103 1.601931 5
26.002323 -6.6758313 1.8810873 15
25.458342 -5.9881611 1.1531404 48
25.409115 -5.8523369 0.6671837 91
25.707262 -6.156806 1.6306494 22
25.502508 -5.8206449 1.1168554 83
26.029156 -6.5428324 2.0172124 0
25.45154 -5.6813235 0.63544893 85
25.543301 -5.6500659 1.0865866 102
25.918867 -6.0534487 1.6846641 1
26.405481 -6.4894571 1.5821469 1
25.597904 -5.4802771 1.0516787 105
25.567183 -5.5241866 0.57128096 5
26.641251 -6.3987684 1.627923 5
25.659979 -5.3128295 1.0148437 110
25.634916 -5.3532538 0.53085786 9
26.427982 -6.01864 1.6027232 1
26.744558 -6.2697382 1.7327138 5
25.719004 -5.1360307 0.98283261 100
25.800869 -4.966054 0.94285649 97
26.787521 -5.9396586 1.5924778 7
26.784737 -5.7739244 1.7421669 14
25.905176 -4.7978063 0.8939265 82
26.318602 -4.6858373 0.69965768 49
