# .PCD v0.7 - Point Cloud Data file format
VERSION 0.7
FIELDS x y z intensity
SIZE 4 4 4 4
TYPE F F F F
COUNT 1 1 1 1
WIDTH 137
HEIGHT 1
VIEWPOINT 0 0 0 1 0 0 0
POINTS 137
DATA ascii
24.766966 -8.1383286 0.63362902 69
24.778439 -8.1221943 0.67588037 85
24.80224 -8.0475521 0.60654986 80
24.794771 -8.089406 0.76003474 80
24.823856 -7.9921355 0.60733032 89
24.732176 -8.2454033 0.74765146 81
24.823795 -7.978024 0.74462855 82
24.848555 -7.8962283 0.59328008 86
24.817976 -8.0345592 0.8906579 84
24.691305 -8.3672323 0.8169601 123
24.852991 -7.8550258 0.54810643 84
24.856073 -7.9108429 0.87683618 88
24.868156 -7.810863 0.73474109 84
24.85968 -7.9833288 1.0154628 37
24.692247 -8.5000467 0.86928791 106
24.900398 -7.684392 0.58905935 84
24.889669 -7.7209105 0.87563759 88
24.859188 -7.8294544 1.0205998 66
24.932909 -8.0818872 1.1155838 20
24.928387 -7.7929435 1.026783 74
24.805954 -7.9005718 1.1306554 59
24.932129 -8.2191 1.1653255 22
24.694647 -8.6294641 0.92222148 92
24.928568 -7.586719 0.73016983 81
24.810904 -7.8987832 1.1830891 51
24.937319 -7.6457777 0.98096693 91
25.003477 -7.7879214 1.0980413 21
24.973583 -8.3680763 1.1948898 0
24.946396 -7.6414189 0.99920499 91
24.714834 -8.7605639 0.96845973 81
24.962864 -7.4854751 0.8696267 87
24.904675 -7.8536558 1.2819602 11
24.971048 -7.5016017 0.92560756 89
24.978582 -7.4212656 0.58754522 86
25.050974 -7.5701523 1.0990063 36
24.558207 -8.935379 0.57985073 57
25.077747 -7.8312788 1.3418136 19
25.300806 -8.6082172 1.0900462 6
24.767052 -8.9000664 1.0033404 48
24.998985 -7.3548865 0.87482804 89
25.011969 -7.3098574 0.72502482 84
25.016266 -7.3874488 0.99792957 90
24.574324 -9.0595446 0.63325578 72
25.227325 -7.9527631 1.4357377 6
25.13236 -7.7786837 1.436345 39
25.139633 -7.7686934 1.4570404 38
25.033527 -7.2086945 0.82439631 85
24.8706 -9.0541334 1.0136371 48
25.446383 -7.7215891 1.2417488 30
25.048754 -7.1947675 0.86673039 88
25.116304 -7.3020163 1.101815 50
25.597826 -7.7817211 1.1110113 23
25.423082 -8.7798586 1.086396 34
24.606577 -9.183691 0.67933846 50
25.514391 -7.5881057 1.1693103 31
25.06123 -7.1027918 0.5902639 87
25.265667 -7.5862584 1.4204042 39
25.285484 -7.4254675 1.2919461 98
25.274721 -7.3630843 1.2452731 150
25.323584 -7.7396092 1.5160195 40
25.084026 -7.0595403 0.76871449 86
25.796835 -7.6845226 0.88905901 7
25.099472 -7.0830984 0.99760664 92
25.011091 -9.2174034 1.0102708 37
25.218267 -7.2110095 1.2061487 5
24.714851 -9.3324766 0.68832248 38
25.117155 -6.9836612 0.71966952 110
25.219208 -7.1896443 1.2376386 2
25.562248 -8.9545774 1.0794067 25
25.290915 -7.4932284 1.5582104 101
26.008503 -8.0009594 0.75868475 5
25.283072 -7.31286 1.4439408 104
25.544067 -7.7158089 1.563453 40
25.132898 -6.9077005 0.71341914 90
25.188478 -6.9780445 1.1102936 63
25.237696 -7.0342369 1.1954079 9
25.292511 -7.1086702 1.3248041 9
25.144884 -6.8553772 0.86355412 84
25.184256 -9.3908281 0.99230385 24
25.41066 -7.4262991 1.6510066 34
24.963535 -9.5305672 0.63132125 31
25.361427 -7.2217541 1.5596156 59
25.178385 -6.751843 0.66515285 89
25.255335 -6.8751163 1.1574787 36
25.752787 -9.1450272 1.0509394 28
25.810774 -7.7006817 1.5885864 25
25.303665 -6.8755412 1.2110037 10
25.36025 -7.0018616 1.4471631 8
25.196165 -6.7291627 0.9940719 89
25.720999 -7.4053922 1.6615441 7
25.419283 -7.1194448 1.684625 43
25.275591 -6.7133393 1.1198597 65
25.220901 -6.592751 0.6207186 90
25.348772 -6.7548714 1.3411487 2
25.281015 -6.6117115 1.1066334 75
25.472565 -6.9051638 1.5476748 58
26.189188 -8.5402727 1.0820796 0
25.401121 -9.5747719 0.95685774 20
25.238537 -6.4269147 0.59303111 67
25.293612 -6.5492721 1.0879624 96
25.843899 -7.3285189 1.7554387 31
25.856445 -7.1163616 1.6353753 4
25.474226 -6.6496358 1.4349989 4
25.414654 -6.5022507 1.1951799 17
25.931488 -9.3272762 1.0295845 17
25.325428 -6.3868432 1.0504134 102
25.590746 -6.8049092 1.6455661 24
26.286947 -7.7432299 1.5235926 7
26.11511 -7.2878761 1.7852273 7
26.297867 -8.7153711 1.0841035 5
26.252207 -8.8377428 1.1629407 4
25.940331 -9.4465704 1.0961925 1
25.510075 -6.3800812 1.3038747 7
25.348427 -6.2206144 1.0192497 107
25.581919 -6.5385962 1.5354762 50
25.867203 -6.7432756 1.6705775 1
26.38271 -7.6681614 1.6297805 7
25.704559 -6.4277868 1.6279144 32
25.573536 -6.2465482 1.4269662 102
25.402315 -6.0579243 0.97695643 118
26.342999 -7.1204305 1.5691769 2
26.405947 -7.5706763 1.7721826 1
25.436646 -5.8900695 0.94590789 108
26.588474 -7.5117559 1.8455745 5
25.70652 -6.1269126 1.5145031 52
26.499062 -7.032279 1.6542357 4
26.464756 -6.7569251 1.5527463 6
26.161634 -6.3919539 1.5719496 2
25.496048 -5.7242036 0.90729624 99
25.884357 -6.016387 1.5821728 44
26.250069 -6.2643561 1.6834265 32
26.591681 -6.6473074 1.6482152 9
25.568563 -5.5570579 0.86316937 94
26.246281 -5.9380064 1.5680492 31
25.726307 -5.4071326 0.77942932 44
26.490309 -5.8322492 1.6081386 10
26.712429 -6.2181039 1.6290296 12
