# .PCD v0.7 - Point Cloud Data file format
VERSION 0.7
FIELDS x y z intensity
SIZE 4 4 4 4
TYPE F F F F
COUNT 1 1 1 1
WIDTH 98
HEIGHT 1
VIEWPOINT 0 0 0 1 0 0 0
POINTS 98
DATA ascii
25.299311 -6.2633901 0.65671831 11
25.346313 -6.1806707 0.79957193 79
25.396818 -6.019475 0.68425161 80
25.391531 -6.1661716 0.96744424 95
25.412209 -6.0994368 0.93233097 95
25.356537 -6.340178 1.0137265 110
25.442842 -5.9964523 0.91487455 86
25.471313 -5.9311428 0.81571293 84
25.485813 -5.8408055 0.55349177 41
25.318346 -6.5130749 1.0649664 89
25.493948 -6.0193753 1.055787 46
25.519417 -5.8278446 0.8526032 58
25.571257 -5.8437347 0.93432117 61
25.637541 -5.7591438 0.6462118 48
25.307926 -6.6905518 1.1048565 94
25.599579 -5.940845 1.171975 47
25.751333 -5.7715526 1.0135286 30
25.300241 -6.8612828 1.1449904 49
25.624762 -6.1775689 1.3541492 11
25.847706 -5.7124672 0.66821325 50
25.684443 -6.0088191 1.2962974 1
25.566273 -6.3460879 1.4127191 21
25.787121 -5.846209 1.223129 27
25.77972 -5.8778815 1.2512708 20
25.961397 -5.7123299 0.65706903 25
25.550667 -6.5237074 1.4529339 55
25.296963 -7.0362034 1.1860837 13
25.528437 -6.6969662 1.500003 89
26.198141 -5.7487187 1.0028217 14
25.528639 -6.8720007 1.5381191 90
25.280752 -7.2051659 1.235664 2
26.224688 -5.871326 1.2071178 23
26.320734 -5.7857661 0.90810591 2
25.502598 -7.0402393 1.5912961 88
26.178827 -6.0878892 1.5637447 3
25.447599 -7.4269338 1.200725 2
26.276512 -6.2973418 1.5509003 28
26.038485 -6.6076384 1.7273242 21
25.49712 -7.2106934 1.6360173 66
26.328335 -6.4975586 1.5613244 24
25.250746 -7.5347519 1.3433974 15
25.508928 -7.3863764 1.6773084 18
25.410856 -7.5232697 1.7706847 21
26.821602 -6.0491819 1.2452116 1
26.540619 -6.9220662 1.5385073 5
26.509825 -7.0945439 1.5940105 7
25.292387 -7.8768096 1.4221894 20
25.845427 -7.8858752 1.1070055 19
25.726297 -7.7861319 1.6756216 2
26.475336 -7.2659359 1.6525362 3
25.22086 -8.0126104 1.5086085 59
26.485868 -7.4459729 1.6931758 2
25.432266 -8.2394676 1.46517 1
26.156427 -8.085866 1.5323579 5
26.195965 -8.2623777 1.5695021 16
26.537167 -7.8103399 1.7686596 7
24.714808 -9.1385136 0.57357764 4
24.618994 -9.1680565 0.70649427 34
24.629576 -9.2319841 0.78611672 70
26.484865 -8.5168438 1.497829 1
26.372707 -8.8655329 1.1414227 3
24.674383 -9.3050346 0.85068542 67
24.719584 -9.3719826 0.91818041 25
24.790678 -9.4439507 0.97482455 47
24.910631 -9.5286045 1.0084876 45
24.608027 -9.5150681 0.50966346 63
24.613115 -9.556138 0.60080147 60
24.636213 -9.5990963 0.68621278 51
25.088737 -9.6319675 1.0168109 39
24.714859 -9.6581049 0.74280006 23
25.179207 -9.6824703 1.0133507 23
24.967407 -9.6931343 0.9810288 24
25.43922 -9.6837091 1.0249218 24
24.802963 -9.7160664 0.80000126 16
24.874254 -9.7464952 0.89023399 20
24.880991 -9.7642756 0.86386216 21
24.852686 -9.8223581 0.76545399 20
25.287865 -9.7385159 1.0175998 27
24.976357 -9.8145733 0.92321187 26
25.717031 -9.6858559 1.0308118 20
25.136347 -9.8849964 0.95243889 22
25.118542 -9.8978729 0.94587362 21
25.042078 -9.9370623 0.85055029 8
25.338953 -9.9105492 0.97000593 24
25.535456 -9.8591099 1.0006986 20
25.092592 -10.02305 0.69255167 2
25.353361 -9.9723969 0.95763379 12
25.088129 -9.9990234 0.50840843 57
25.569548 -9.9209785 0.99454755 18
25.445435 -10.004313 1.0248709 0
25.292418 -10.078105 0.75769925 22
25.371372 -10.069342 0.87959403 6
25.368879 -10.087436 0.83806837 11
25.334332 -10.104176 0.76873702 20
25.757086 -9.9091587 1.0404413 9
25.718672 -9.9483728 1.0168251 8
25.94684 -9.8927622 1.0867364 0
26.16399 -9.7472467 0.95796722 26
