# .PCD v0.7 - Point Cloud Data file format
VERSION 0.7
FIELDS x y z intensity
SIZE 4 4 4 4
TYPE F F F F
COUNT 1 1 1 1
WIDTH 122
HEIGHT 1
VIEWPOINT 0 0 0 1 0 0 0
POINTS 122
DATA ascii
26.59564 -6.1446581 0.76311588 2
26.596937 -6.2979679 1.3023202 3
26.48954 -6.4608097 1.3821609 0
25.800474 -6.1505437 1.1686532 45
26.212551 -6.5613027 1.560341 25
26.188675 -6.5756822 1.5533367 30
25.531015 -6.1322041 0.79750079 40
26.259623 -6.7753544 1.5590911 26
26.553469 -6.8082356 1.6800936 1
25.597313 -6.2881894 1.2949257 1
26.398886 -6.9158549 1.5999568 16
25.895403 -6.6346884 1.5553645 40
26.325487 -6.9722433 1.5682088 24
25.362164 -6.2777662 0.90973192 86
25.530401 -6.4544249 1.3600849 9
26.051765 -6.9709778 1.6067195 28
26.424936 -7.1782527 1.5634897 5
25.31152 -6.4480062 0.96448582 92
25.51038 -6.628386 1.402741 16
25.614288 -6.7125916 1.5379201 45
26.498882 -7.2302189 1.6750733 1
25.277281 -6.6204548 1.0149781 103
26.428898 -7.0699506 1.8577205 4
25.493494 -6.7996778 1.4476428 21
26.401764 -7.341886 1.5675532 7
25.487984 -6.8255725 1.4473555 22
26.446148 -7.3608556 1.5975392 5
25.258974 -6.7910161 1.0592067 102
25.382442 -6.9425964 1.3472766 122
25.244661 -6.9616394 1.102393 91
25.469633 -6.9686422 1.4964062 86
25.649916 -7.0058846 1.6378707 41
25.305538 -7.0646043 1.230467 90
25.242105 -7.1336365 1.1445903 54
25.214497 -7.1799922 1.1224396 69
25.50181 -7.1048436 1.5579938 91
25.477608 -7.1432366 1.5358831 93
25.403843 -7.2137799 1.4537613 19
26.021996 -7.3692145 1.5886943 2
26.424761 -7.5316668 1.6539503 4
26.453348 -7.6038265 1.6680875 2
26.337458 -7.6974678 1.5662763 4
26.459606 -7.7151871 1.6865121 1
25.486742 -7.3185754 1.5750651 64
25.540007 -7.3637052 1.6588911 18
25.82925 -7.6706409 1.6451215 0
25.34271 -7.3288026 1.3306671 2
25.479181 -7.4848275 1.6236641 46
25.425156 -7.4563098 1.5619619 56
26.388802 -7.922524 1.6674261 1
25.248402 -7.3075085 1.1824276 17
25.140501 -7.2962127 1.0058289 89
25.255531 -7.4350376 1.221509 11
25.231981 -7.4718847 1.2353876 2
25.095396 -7.4174004 0.87345356 76
25.498013 -7.6568966 1.662334 14
25.345963 -7.5573897 1.4475461 9
25.46986 -7.6796432 1.6596576 21
25.635777 -7.8620262 1.650681 2
26.310452 -8.0110226 1.5515925 7
25.264282 -7.6540303 1.3357912 1
25.360344 -7.759706 1.5622035 55
25.615889 -7.9055948 1.7164086 6
25.236578 -7.6402917 1.2798005 0
25.149508 -7.5305042 1.119207 66
25.065899 -7.5418224 0.73290235 79
26.41161 -8.0390759 1.8118387 0
25.867432 -8.0413923 1.8766994 14
26.459423 -8.1243877 1.7621975 9
25.568306 -8.0025024 1.7332225 30
25.774288 -8.1062002 1.7747619 19
25.27743 -7.8444095 1.4526817 20
25.342527 -7.9230118 1.6951127 22
25.196402 -7.7492499 1.2173046 5
25.180494 -7.7860994 1.3563333 6
25.077515 -7.6348872 1.0008836 91
26.059858 -8.3165531 1.5663497 1
25.854795 -8.1571627 1.0855401 7
25.582205 -8.1341534 1.7178683 7
25.209492 -7.9284391 1.336133 22
25.289648 -8.0034056 1.574576 49
25.424549 -8.1394014 1.3663604 30
25.032495 -7.6610703 0.59433973 70
25.034918 -7.7442174 0.86873215 85
25.099203 -7.834414 1.1135931 50
25.390871 -8.1599169 1.6617831 12
25.446259 -8.1884375 1.3354768 17
25.300388 -8.0597878 1.1424696 6
25.296282 -8.2118158 1.5621243 51
26.182861 -8.5154514 1.5688144 20
25.827854 -8.3596573 1.023904 6
25.00865 -7.8555803 0.72819972 84
25.026972 -7.9225125 0.99718648 88
24.977169 -8.0132265 0.87081254 82
24.983093 -7.9635916 0.5853709 76
25.063496 -8.0836687 1.1086149 44
25.22785 -8.266408 1.450488 21
26.414251 -8.7479506 1.5247558 3
25.700762 -8.408289 0.93684107 8
25.88431 -8.555851 0.99412352 4
25.23295 -8.2764587 1.4927015 48
24.975737 -8.1502657 1.005295 89
24.95689 -8.1128187 0.72752595 78
24.944582 -8.2313395 0.87391508 84
25.04903 -8.2799921 1.1077276 28
24.958477 -8.3278322 1.0069596 84
24.938831 -8.2068357 0.58565414 74
24.923695 -8.3128767 0.73675519 79
25.058357 -8.4205647 1.1071224 25
24.914555 -8.3886967 0.88589227 81
25.282837 -8.4463167 1.5263187 45
24.945326 -8.4435854 1.0243152 72
24.907068 -8.4867859 0.9046365 83
24.910713 -8.3943634 0.59339064 75
24.899092 -8.4547329 0.75124609 76
24.885878 -8.5329685 0.77846676 78
24.890835 -8.5187864 0.60951918 76
25.367294 -8.6240816 1.5468626 0
25.941837 -8.6474371 0.81900632 5
26.306606 -9.092926 1.1728708 0
24.884995 -8.5812454 0.64287454 78
24.856476 -8.6149025 0.52052426 61
