# .PCD v0.7 - Point Cloud Data file format
VERSION 0.7
FIELDS x y z intensity
SIZE 4 4 4 4
TYPE F F F F
COUNT 1 1 1 1
WIDTH 96
HEIGHT 1
VIEWPOINT 0 0 0 1 0 0 0
POINTS 96
DATA ascii
24.818624 -9.2119694 0.58710259 6
24.735537 -9.2487612 0.71274847 19
24.754372 -9.3177567 0.78740513 56
24.774696 -9.381381 0.86469352 77
24.825413 -9.451683 0.92999589 74
24.712698 -9.6363602 0.61693168 42
24.73423 -9.679493 0.7018739 68
24.881094 -9.517662 0.99394041 62
24.776333 -9.724575 0.77836001 57
24.993498 -9.5999069 1.0319177 49
24.82881 -9.7692413 0.8541975 21
24.8874 -9.8103294 0.92838192 20
24.901972 -9.8167543 0.94120628 22
24.844568 -9.8787928 0.83515418 11
24.779467 -9.9390669 0.52123702 23
24.767569 -9.9410381 0.63498914 24
25.044783 -9.7820425 1.0067205 39
24.815392 -9.945837 0.71455544 23
25.168018 -9.7001629 1.0425456 42
24.824274 -9.9664707 0.71667415 26
25.00458 -9.8682013 0.975088 38
24.903614 -9.9931965 0.78625393 18
25.263418 -9.7709198 1.0351813 26
24.89835 -10.054712 0.53630739 17
24.980049 -10.01373 0.86270481 19
24.974487 -10.028462 0.81992573 18
25.016077 -9.9805908 0.92928994 25
24.929665 -10.069983 0.71234655 22
24.974104 -10.089751 0.76511008 22
24.948906 -10.111054 0.65416759 18
25.179464 -9.9442539 0.99767083 26
25.149603 -9.9635277 0.99542594 31
25.059999 -10.030209 0.93611193 24
25.027786 -10.073431 0.86247319 21
25.377626 -9.8090582 1.0410224 28
25.123737 -10.067848 0.9406718 26
25.042927 -10.169226 0.52499712 17
25.517145 -9.7684317 1.0514902 28
25.219585 -10.07265 0.97666699 27
25.38719 -9.9813194 1.0121211 28
25.30599 -10.091335 0.97605669 27
25.405699 -10.033827 0.99668306 25
25.615788 -9.9241076 1.0290248 25
25.468094 -10.14464 0.9757992 22
25.64772 -10.001557 1.0207835 24
25.814028 -9.7752848 1.0452794 23
25.569765 -10.140322 0.97809178 20
25.655138 -10.125827 0.98863053 22
25.688049 -10.197493 0.99348778 13
25.850555 -10.032007 1.0229768 19
25.778812 -10.161372 1.0085001 12
25.904356 -10.01467 1.033461 19
25.685169 -8.5119925 1.5089784 13
25.813448 -10.178736 1.0265754 7
25.459356 -8.2856016 1.5553864 38
25.879677 -10.136333 1.0913289 1
25.325274 -8.0880613 1.5596248 52
25.860693 -10.227626 1.0345843 1
26.132999 -9.7849922 1.0354044 19
25.99884 -10.101613 1.059654 5
25.322668 -7.9288158 1.5062687 46
26.117287 -10.003343 1.0727134 6
25.32106 -7.7673635 1.4546899 23
26.394434 -8.8981371 1.246496 2
25.320171 -7.6037211 1.4039198 1
25.892887 -8.0383759 1.7526195 20
25.358097 -7.4466224 1.3368961 1
25.793852 -7.8483119 1.7416005 20
25.306931 -7.2633009 1.3155254 1
25.320681 -7.0982771 1.2650445 2
25.9536 -7.7287221 1.6174276 0
25.874334 -7.5359077 1.6032674 0
26.38204 -8.3494005 1.5889739 10
25.345026 -6.9306755 1.2127892 51
25.601767 -7.29107 1.679203 7
25.596607 -7.1185365 1.6366575 22
25.338329 -6.7546482 1.1757616 93
26.521868 -8.0084524 1.9298582 1
25.581707 -6.9414568 1.6017605 78
25.584793 -6.7680025 1.5591111 120
25.341518 -6.5772471 1.1371633 98
25.612032 -6.5967398 1.5091467 48
26.454327 -7.3013935 1.7551507 0
25.345205 -6.3998165 1.1005 91
25.607967 -6.417068 1.4734433 61
25.419451 -6.2361498 1.0321507 20
26.514555 -7.1418462 1.6822574 2
26.403936 -6.9327455 1.6894931 18
25.660992 -6.246562 1.4157122 0
26.478104 -6.7689004 1.6170256 11
25.482817 -6.0662117 0.97275788 51
25.909487 -6.1193533 1.2682197 4
26.49202 -6.5875673 1.5703961 17
26.416813 -6.3841305 1.5694863 14
25.892117 -5.9703255 0.74439198 16
26.147295 -5.9847002 1.1275458 4
