# .PCD v0.7 - Point Cloud Data file format
VERSION 0.7
FIELDS x y z intensity
SIZE 4 4 4 4
TYPE F F F F
COUNT 1 1 1 1
WIDTH 73
HEIGHT 1
VIEWPOINT 0 0 0 1 0 0 0
POINTS 73
DATA ascii
25.318823 -7.3803091 0.59547919 72
25.322121 -7.2980361 0.75218898 74
25.321955 -7.1700644 0.63657433 74
25.322718 -7.2110958 0.90647393 77
25.32793 -7.0730419 0.7955783 76
25.315798 -7.010148 0.53263688 58
25.32774 -6.9036508 0.69001186 82
25.376266 -7.1379485 1.0418209 75
25.344368 -6.9776893 0.94875598 86
25.329525 -6.7933269 0.85208702 85
25.511112 -7.084856 1.1322495 26
25.326218 -6.7060232 0.5866589 73
25.392464 -6.8863587 1.0864352 66
25.35181 -6.6843867 1.0026011 89
25.335363 -6.5869927 0.74777806 83
25.454678 -6.9711771 1.3167813 0
25.480131 -6.8052611 1.2014215 12
25.409346 -6.5837483 1.1356742 55
25.344797 -6.4658041 0.90777159 87
25.550873 -6.9003949 1.4275405 1
25.322054 -6.3484578 0.65755522 81
25.368683 -8.4636297 0.55605114 5
25.382549 -6.3492665 1.0510794 90
25.474405 -6.4824505 1.2657403 6
25.648184 -6.8264499 1.5410889 40
25.32719 -6.2159386 0.8185941 89
25.588943 -6.6144524 1.467216 10
25.425674 -8.6134996 0.58044749 8
25.362741 -6.0976477 0.54173708 5
25.458202 -6.2394357 1.1762445 41
25.744917 -6.7474232 1.6526817 19
25.518179 -6.37254 1.4023511 0
25.338299 -8.7076197 0.6804955 27
25.346968 -6.086225 0.97271901 93
25.679153 -6.5227261 1.5845628 41
25.306719 -5.9423561 0.73413146 18
25.530407 -6.1272845 1.3022932 16
25.350164 -8.8322001 0.73099774 65
25.653448 -6.2839165 1.4996521 25
26.190546 -6.7631464 1.6064088 0
25.795551 -6.437233 1.6878616 6
25.411736 -5.9655175 1.1016871 90
25.72805 -6.1762614 1.6230401 25
25.590157 -6.0097642 1.433633 89
25.323486 -5.8040481 0.88794905 91
25.489117 -5.8460636 1.2252979 101
25.418829 -8.9736824 0.7584812 50
26.354511 -6.4652119 1.59236 1
26.562723 -6.7538524 1.598829 2
26.105007 -6.1422276 1.6098986 2
25.37928 -5.6720552 1.0202214 100
25.684114 -5.8966365 1.5467464 68
25.550285 -5.7199111 1.3531032 43
25.525694 -9.1269627 0.76880991 20
25.452349 -5.5412712 1.144878 77
25.939569 -5.822576 1.586838 29
25.663488 -5.6044464 1.4570221 22
26.748381 -6.6857176 1.6779157 1
26.653404 -6.4173851 1.6192002 4
26.530115 -6.1167517 1.5759382 11
25.547363 -5.4165707 1.2555615 16
25.733814 -9.3144054 0.73013014 7
25.786652 -5.4857464 1.5572772 66
26.301445 -5.7692852 1.5764741 23
25.693472 -5.29668 1.343599 0
26.764168 -6.315052 1.7310882 0
26.625376 -6.0014424 1.6917955 5
26.09362 -5.4090552 1.5704246 46
26.584444 -5.6922035 1.6072655 19
26.569565 -5.8487372 1.8748492 4
26.7623 -5.5837584 1.6860378 0
26.692917 -5.204978 1.1897999 6
26.914362 -5.4390688 1.3557456 5
