# .PCD v0.7 - Point Cloud Data file format
VERSION 0.7
FIELDS x y z intensity
SIZE 4 4 4 4
TYPE F F F F
COUNT 1 1 1 1
WIDTH 104
HEIGHT 1
VIEWPOINT 0 0 0 1 0 0 0
POINTS 104
DATA ascii
25.319813 -6.0095978 0.68601221 37
25.318314 -5.9920912 0.74118525 59
25.340536 -6.1847248 0.74991626 73
25.318796 -5.9129896 0.85680419 81
25.336401 -5.8107047 0.71362996 16
25.382462 -5.8548961 0.57236791 5
25.314465 -5.7281609 0.77826571 39
25.36817 -5.8264384 0.9999314 74
25.345228 -6.3739185 0.77047336 79
25.336597 -5.6209631 0.70006388 10
25.355909 -5.6300955 0.92760009 99
25.305302 -5.5189338 0.70305133 22
25.462858 -5.9851294 1.1695372 51
25.453646 -5.7980032 1.1542997 98
25.435911 -5.7423396 1.1351472 98
25.476826 -6.1754594 1.1845632 23
25.34807 -6.5595422 0.79461396 76
25.323874 -5.4276805 0.69194669 22
25.411482 -5.5342288 1.0690982 98
25.452377 -5.6084442 1.1390476 98
25.351913 -5.4127178 0.84999281 99
25.507868 -6.3705716 1.1930521 14
25.499063 -5.6560168 1.27053 100
25.340534 -5.2957273 0.60689628 66
25.333111 -6.734664 0.83064985 76
25.449537 -5.4182625 1.1262749 96
25.343195 -5.2403908 0.67337108 87
25.413177 -5.3086987 0.9910323 86
25.48587 -5.4406333 1.2005008 52
25.511995 -6.5550308 1.2189238 5
25.421633 -5.1887035 0.73757046 148
25.586363 -5.5700774 1.3975186 17
25.468702 -5.2329416 1.1056736 49
25.334791 -6.9176993 0.86026281 77
25.490484 -5.2053499 1.1206321 52
25.518103 -6.738143 1.2453101 1
25.682323 -5.8196931 1.5378828 64
25.686586 -6.0079017 1.5575182 55
25.401617 -5.0645299 0.63525307 76
25.560247 -5.3429255 1.3308694 4
25.4683 -5.0703278 0.88552773 70
25.695293 -5.634295 1.5137365 48
25.690754 -6.1941485 1.5782121 45
25.701262 -5.4916625 1.5079795 34
25.52713 -5.0570798 1.0675565 20
25.711288 -6.3853559 1.593586 41
25.691069 -5.4433126 1.5002912 37
25.541479 -4.952569 0.60064095 22
25.59882 -5.1079969 1.2359046 34
25.341736 -7.0957131 0.88952899 74
25.618319 -4.9767938 0.98058009 52
25.712904 -5.2641392 1.4252379 5
25.551825 -4.904871 0.55449444 12
25.727325 -5.261611 1.4700475 35
25.729633 -6.5751424 1.6136688 23
25.699007 -4.9032636 0.97698849 49
25.899879 -5.4310784 1.5799783 49
25.796719 -4.8735027 0.64539802 37
25.804146 -5.0298724 1.3061398 6
25.6889 -6.7433581 1.6647208 21
25.871578 -4.9031873 1.025857 23
25.347277 -7.2740889 0.92122883 74
26.098305 -5.2373834 1.4111146 1
26.05895 -4.9574971 1.2962254 3
25.789663 -6.9544702 1.6508207 7
26.263863 -5.4067078 1.5786997 38
26.146446 -4.9832053 1.310533 3
25.363379 -7.4536009 0.95223403 76
26.25172 -4.8335314 0.70193946 49
26.511093 -5.8194442 1.6319588 5
26.561495 -5.6387749 1.5907735 21
26.344229 -7.1825237 0.87714642 9
25.576159 -7.4639797 1.3596175 22
25.352999 -7.6222754 0.99843776 57
26.034924 -7.2100739 1.5742798 27
26.331129 -4.8737264 0.97576934 20
26.285774 -4.8459263 0.57414502 141
26.540604 -5.4369292 1.5858238 21
26.450016 -4.8484192 1.1069164 8
26.581089 -5.3664603 1.6031005 16
26.653036 -6.0512729 1.5876386 5
26.541647 -5.2409267 1.5720326 23
26.663286 -6.2454591 1.605709 3
25.621439 -7.6500292 1.3809124 14
25.420044 -7.8120198 1.0078319 54
26.366419 -6.728322 1.8221841 9
26.299595 -6.8906221 1.886272 2
26.170681 -7.4327145 1.5491496 4
26.627905 -4.9607477 1.2547102 10
26.761995 -5.2741623 1.2734706 2
26.688433 -6.4459548 1.6198794 2
26.773197 -6.6611314 1.6101705 11
25.44433 -7.9890962 1.0397904 62
26.571936 -7.4404092 0.80417055 4
25.511768 -8.1780376 1.0552834 52
25.607035 -8.3756638 1.058322 43
26.404734 -8.0957842 1.0529119 1
25.749884 -8.5893488 1.0427026 36
26.490326 -8.2983551 1.059523 23
25.930021 -8.8179502 1.0100864 22
27.025957 -7.9001842 1.1992042 1
26.580727 -8.5001974 1.0690063 26
26.108486 -9.0439672 0.98100656 13
26.725229 -8.7217484 1.0539895 16
