# .PCD v0.7 - Point Cloud Data file format
VERSION 0.7
FIELDS x y z intensity
SIZE 4 4 4 4
TYPE F F F F
COUNT 1 1 1 1
WIDTH 114
HEIGHT 1
VIEWPOINT 0 0 0 1 0 0 0
POINTS 114
DATA ascii
25.411688 -6.5782723 0.55752492 62
25.405085 -6.4831648 0.72683543 74
25.391979 -6.3170815 0.63976699 76
25.390434 -6.3838868 0.90131575 78
25.378914 -6.2091513 0.81168008 81
25.35536 -6.1186857 0.56370884 63
25.428497 -6.2954049 1.0455606 78
25.570354 -6.5107636 1.1366178 14
25.355659 -6.0026412 0.73307872 83
25.381218 -6.1015306 0.97336984 83
25.528118 -6.3175225 1.1230724 25
25.599829 -6.700911 1.1565794 5
25.504681 -6.2152305 1.1706039 17
25.620886 -6.8851151 1.1859206 1
25.469469 -6.1202502 1.1230842 46
25.356628 -5.8852305 0.8981263 87
25.438963 -6.004426 1.1113466 59
25.335129 -5.771956 0.65353227 80
25.555357 -7.0448637 1.257332 19
25.436947 -5.926012 1.1111186 60
25.584015 -6.1312666 1.2947865 0
25.369469 -5.7701392 1.0580201 89
25.505121 -5.9073606 1.2450538 6
25.322226 -5.6416454 0.82932079 86
25.70256 -7.2637472 1.2291787 18
25.394899 -5.7299891 1.1047306 74
25.388491 -5.5330033 0.54009241 14
25.648991 -6.0414944 1.4257717 4
25.754686 -6.5150008 1.5504893 42
25.701262 -6.3192286 1.5408808 25
25.85046 -6.7213373 1.5429133 30
25.676037 -6.1291881 1.5208435 22
25.450422 -5.6673203 1.1805611 36
25.325296 -5.5155606 0.99373627 87
25.651396 -5.9371595 1.5047675 20
25.373943 -5.5353169 1.0928345 86
25.284887 -5.3751731 0.76106578 42
25.67943 -5.9394293 1.5729144 39
25.642796 -5.7495337 1.4814364 14
25.629549 -5.7055612 1.5092888 20
25.369329 -5.3949914 1.1361092 89
25.347185 -5.3411312 1.0865989 87
25.808781 -5.8580418 1.6757591 8
25.603413 -5.5509024 1.4753591 9
26.241812 -7.5995755 1.0168349 17
25.280962 -5.2384348 0.92824167 91
25.555769 -5.4385915 1.4598707 54
25.451527 -5.2817421 1.2602925 98
25.711229 -5.6036978 1.6337188 20
26.203539 -6.224216 1.7765013 21
25.567797 -5.3535619 1.4703774 82
26.273764 -6.0525689 1.7130512 14
25.323984 -5.1451125 1.0794114 91
26.272608 -5.8532758 1.6277013 1
25.218271 -5.0758905 0.71049398 14
25.32066 -5.1067529 1.0757788 98
26.046768 -5.5554733 1.6425983 1
25.633368 -5.3293648 1.5832295 49
26.4541 -5.9052925 1.6044725 3
25.499146 -5.157187 1.3996216 48
26.213638 -7.7672138 1.078544 29
26.673952 -6.5283809 1.5994443 15
25.231533 -4.9351006 0.87003207 88
25.5485 -5.1596327 1.4601218 48
25.304638 -4.9484105 1.0753453 91
25.379793 -4.9794345 1.2089648 93
26.399441 -5.6989183 1.6033535 0
25.788425 -5.2306252 1.6740123 11
26.362474 -5.4976926 1.5966192 1
25.590597 -5.0386672 1.5192655 42
25.543272 -4.9666009 1.4461942 17
25.280825 -4.7999206 1.0088193 83
25.442453 -4.8512645 1.3401872 5
25.294331 -4.7546768 1.0668738 67
26.184259 -5.2685347 1.6565665 1
26.371056 -7.9872341 1.0559993 23
26.649635 -5.8230772 1.6217595 2
25.922991 -5.1263952 1.772171 15
26.582142 -5.5452185 1.5654223 3
25.803066 -4.9425783 1.580572 39
25.343906 -4.6644859 1.1398622 48
25.534849 -4.7724366 1.4372239 33
25.564781 -4.7304058 1.442423 14
25.329727 -4.5686951 1.0403121 48
26.167963 -5.0667043 1.6444162 20
26.759138 -5.724009 1.7368652 0
26.628229 -5.4261823 1.7062382 1
27.082458 -6.8238907 1.4560829 1
26.129421 -4.8666878 1.5905538 37
25.478619 -4.5426197 1.2336799 32
25.654245 -4.6023307 1.3702185 0
25.426872 -4.3927202 0.98631209 61
25.825186 -4.6341982 1.4808428 11
26.576712 -8.224577 1.0127244 19
26.261578 -4.8882651 1.587182 35
26.449522 -5.0957131 1.6991793 18
27.094229 -7.4321885 1.0526017 26
27.072086 -7.6095328 1.1086936 13
25.664143 -4.4260726 1.3028725 8
25.743505 -4.4241495 1.3203298 0
25.735352 -4.2545452 0.82980657 20
27.139565 -6.0374632 1.8046707 0
27.189083 -7.8267899 1.1039354 2
26.248835 -4.6900611 1.5813718 34
26.587156 -8.3967447 1.0643694 1
26.448978 -4.7832704 1.6053438 18
26.065838 -4.3442779 1.2703378 10
26.486383 -4.6069012 1.3333546 2
25.975981 -4.2714982 1.2052884 49
26.447407 -4.5280466 1.4823509 15
26.693048 -4.6798968 1.6562413 0
26.475811 -4.2595735 1.2356055 8
26.287384 -4.1486459 0.55714297 150
26.51911 -4.1629868 0.94526827 0
