# .PCD v0.7 - Point Cloud Data file format
VERSION 0.7
FIELDS x y z intensity
SIZE 4 4 4 4
TYPE F F F F
COUNT 1 1 1 1
WIDTH 78
HEIGHT 1
VIEWPOINT 0 0 0 1 0 0 0
POINTS 78
DATA ascii
26.33186 -8.2969513 0.9367947 0
26.257257 -8.2524147 0.83443654 8
26.476454 -8.1995964 1.0200933 7
25.982719 -8.0137835 0.91684896 18
26.765087 -8.1383562 1.0334196 5
26.764055 -7.9966173 1.0246404 18
26.587969 -7.7789164 1.0579852 26
25.864998 -7.8191571 0.92507917 51
26.449324 -7.5747094 1.0776881 28
27.033298 -8.067503 1.0601547 1
25.78602 -7.6314645 0.91919273 71
26.412338 -7.3929801 1.0547545 20
25.721369 -7.4480352 0.90655023 76
25.689869 -7.27108 0.88331348 71
27.280479 -7.5557213 1.1776019 0
27.241491 -7.368227 1.1530069 3
25.824381 -7.0737734 1.2907971 2
25.658875 -7.0930991 0.86302465 68
27.197845 -7.1770587 1.1347228 11
25.603907 -6.9063153 0.85398912 78
27.274353 -7.0114102 1.0638655 4
25.759066 -6.8856435 1.2844359 28
25.568947 -6.7234435 0.83980727 78
26.334831 -6.6628089 0.94972575 0
26.58872 -6.5356112 0.79920256 2
26.079563 -6.5582762 1.5704416 4
26.502335 -6.3311892 0.81455636 5
25.529938 -6.5345182 0.82862699 78
26.008667 -6.3637662 1.5736802 31
27.031101 -6.357656 1.5877163 1
25.487949 -6.3465438 0.82134598 77
26.721289 -6.1076994 1.6977209 6
25.828911 -6.1438456 1.6275806 21
25.454947 -6.1593957 0.81483626 80
25.427801 -5.9716992 0.80678582 82
25.565742 -5.9512916 1.2365662 3
25.755291 -5.9482937 1.637712 36
25.537666 -5.7628613 1.2297777 7
25.766819 -5.768343 1.6104133 34
26.343462 -5.8456478 1.8376505 16
25.399738 -5.7812948 0.80202317 82
25.364887 -5.5877442 0.80310285 85
25.505114 -5.5695786 1.2271621 10
25.733076 -5.5763192 1.6060661 36
25.333845 -5.396317 0.8042652 82
25.470762 -5.3789477 1.2271372 12
26.736626 -5.7323432 1.6458638 10
26.736769 -5.5381241 1.6264211 3
26.699989 -5.3419423 1.6269189 5
25.700094 -5.3832498 1.6056343 40
25.661325 -5.1928759 1.6088365 40
26.633446 -5.1376786 1.6443307 4
25.277781 -5.1996708 0.82116103 74
25.442593 -5.1889138 1.2296448 22
25.662683 -5.0060077 1.598528 37
26.620411 -4.9434128 1.6396987 3
25.230438 -5.0058403 0.83583546 61
25.417227 -4.9981217 1.2314045 99
26.520445 -4.7332373 1.6781262 11
25.66684 -4.8183832 1.5874723 43
25.372694 -4.8025479 1.2463441 95
25.210077 -4.8139424 0.84143525 80
25.20566 -4.6248355 0.83982545 98
25.365906 -4.6129994 1.2443113 22
25.678116 -4.6320896 1.5776861 53
25.70858 -4.4446564 1.5607977 55
25.356394 -4.4233937 1.248158 37
26.554836 -4.5426283 1.6591158 5
25.220247 -4.4367585 0.83223933 95
25.299486 -4.255477 0.79550028 71
25.459549 -4.2458072 1.2011113 56
26.553349 -4.3454885 1.6565787 1
26.631374 -4.3804379 1.1355418 3
25.490705 -4.0903912 0.70503336 56
25.653143 -4.0811648 1.1110674 21
26.460381 -4.1606507 1.2181689 1
26.431147 -3.9592211 1.2362322 6
26.076246 -3.9403205 0.91504407 10
