# .PCD v0.7 - Point Cloud Data file format
VERSION 0.7
FIELDS x y z intensity
SIZE 4 4 4 4
TYPE F F F F
COUNT 1 1 1 1
WIDTH 93
HEIGHT 1
VIEWPOINT 0 0 0 1 0 0 0
POINTS 93
DATA ascii
26.103226 -3.2972178 0.59627724 49
25.946613 -3.3818393 0.76330185 25
26.370438 -3.3077688 0.73115164 24
26.299692 -3.3039095 0.99254757 1
25.682199 -3.4409513 0.7938835 22
25.609047 -3.4664805 0.75129145 43
25.958063 -3.4155517 1.1659108 39
26.315752 -3.3333271 1.1716503 1
25.857317 -3.4442959 1.1926017 50
26.348055 -3.624572 1.2161218 1
25.637623 -3.4970131 1.1452498 34
25.347658 -3.5562341 0.70596659 57
25.311684 -3.5857477 0.96898109 58
25.382584 -3.5830815 1.0951201 26
25.584187 -3.6040916 1.3175761 4
26.236855 -3.6796327 1.4929068 16
25.17445 -3.6551313 0.61699581 44
25.222937 -3.6806576 0.99845028 67
26.118692 -3.7373598 1.5523939 24
25.537542 -3.7926543 1.3350217 0
25.793812 -3.8022759 1.5296061 21
25.385195 -3.7213485 1.3234273 5
26.364662 -3.6548305 1.6132082 4
25.175091 -3.7605019 1.0315167 50
25.118687 -3.7801535 0.87696648 85
26.026661 -3.8486214 1.5870432 41
25.240601 -3.8142259 1.2196637 46
25.078043 -3.8896182 0.72241449 100
25.497486 -3.8686061 1.4972906 15
25.156256 -3.9526613 1.0386257 41
25.146475 -3.9091525 1.0923775 39
26.005259 -4.0414319 1.5958668 42
25.108227 -4.0138545 0.93507642 97
25.039501 -3.9953179 0.56313318 46
25.382578 -3.9637501 1.4074949 6
25.26897 -4.0477195 1.2603726 18
25.310083 -3.9482594 1.4118154 4
25.070562 -4.1144109 0.77964312 82
25.150984 -4.232985 0.56146711 6
25.147577 -4.1435633 1.0451317 91
25.178053 -4.1347141 1.1321601 89
25.983191 -4.2356176 1.6090137 23
25.376936 -4.1549659 1.4132074 2
25.134155 -4.2295504 0.97829199 94
25.231703 -4.4423919 0.57683313 6
25.101498 -4.3237076 0.81940746 55
25.175217 -4.34198 1.0339471 91
25.38645 -4.3497143 1.4129273 39
25.21599 -4.5414238 1.0193393 85
25.699436 -4.3819213 1.7459161 20
25.436104 -4.5522532 1.397065 94
26.01087 -4.6315336 1.6114295 2
25.261032 -4.7399616 1.0056697 84
26.006317 -4.8228822 1.6251299 1
25.311913 -4.9412847 0.991539 81
25.929079 -5.002337 1.6752913 1
25.354738 -5.1396546 0.98568302 79
26.040417 -5.2169948 1.6413544 6
26.854765 -5.1602674 1.75117 8
26.358395 -5.2578483 1.9855413 5
25.903465 -5.3783407 1.7224398 10
25.606184 -5.3469524 1.3719118 1
25.415258 -5.3440413 0.97320014 79
25.444927 -5.5376258 0.97796983 78
26.291161 -5.6541939 1.5682963 11
25.496632 -5.7412419 0.97295278 70
25.551096 -5.9392757 0.97128505 76
26.343655 -5.8589401 1.5692869 18
26.555872 -5.7456698 0.94391489 10
25.609327 -6.1385746 0.97071296 75
25.815327 -6.1443982 1.3717158 20
27.187677 -6.2447357 1.2184139 0
25.657808 -6.335175 0.9757641 58
25.879461 -6.3445096 1.3727084 9
25.739853 -6.5401282 0.9679904 58
27.303572 -6.4660878 1.1957663 2
25.802429 -6.7386966 0.97247517 67
25.87599 -6.9408979 0.97516119 64
26.649269 -6.7253723 1.046369 9
26.633392 -6.9094424 1.0918944 28
25.945927 -7.1378875 0.98080319 56
26.067741 -7.3510118 0.96375114 24
26.147814 -7.3288431 1.0014682 35
26.365664 -7.2408462 1.0530386 29
27.352728 -6.6710758 1.2079717 0
26.787676 -7.1372337 1.060308 24
26.689436 -7.1793756 1.0565168 24
27.276747 -7.0191026 1.0974172 6
27.027172 -7.1126299 1.0573143 19
26.084181 -7.4580488 0.87486333 10
26.936497 -7.3592706 1.0331895 14
26.618172 -7.5940995 1.0571268 0
26.340057 -7.608551 0.87887245 8
