# .PCD v0.7 - Point Cloud Data file format
VERSION 0.7
FIELDS x y z intensity
SIZE 4 4 4 4
TYPE F F F F
COUNT 1 1 1 1
WIDTH 68
HEIGHT 1
VIEWPOINT 0 0 0 1 0 0 0
POINTS 68
DATA ascii
24.947405 -3.8054192 0.59784436 16
24.941944 -3.7225285 0.70880878 79
25.028017 -3.9236007 0.64237684 7
24.955479 -3.7121897 0.77336007 96
24.915447 -3.6058834 0.56640595 46
24.946409 -3.5346897 0.73208541 99
24.946707 -3.5078073 0.72959161 97
25.12114 -4.127183 0.57620108 5
24.968449 -3.6176379 0.94447821 88
25.00687 -3.3543103 0.72737247 85
25.011818 -3.4135664 0.87673467 82
25.079029 -3.8960693 1.0928217 99
25.051836 -3.2963057 0.62905681 46
25.053562 -3.7042837 1.1269794 78
25.126087 -4.0898972 1.0540781 97
25.029232 -3.5284507 1.0907513 41
25.052559 -3.5176163 1.1486005 56
25.111235 -3.3198261 1.0045726 59
25.163538 -3.184818 0.67902195 63
25.217781 -3.2073421 0.72301161 57
25.165409 -4.2835798 1.0183868 94
25.120052 -3.3375986 1.1420516 49
25.12785 -3.44102 1.217846 49
25.22419 -4.4797697 0.97764099 90
25.273674 -3.2317564 1.1004921 35
25.434872 -3.1208913 0.79121548 42
25.284206 -3.1704128 1.0917736 21
25.293919 -3.3612752 1.3118892 5
25.279757 -4.6748714 0.94185281 81
25.489798 -3.1486669 1.1700243 46
25.582844 -3.0156665 0.97649616 36
25.660961 -3.029238 0.85803002 21
25.335812 -4.8709302 0.90698636 78
25.767376 -3.0697191 1.2111301 47
25.400824 -5.0680618 0.87289125 79
25.973778 -2.9426827 0.88671762 13
26.306961 -3.3846684 1.0089242 0
26.166203 -2.8872373 0.72918671 58
26.197351 -3.2592523 1.2385867 1
26.129639 -2.9933743 1.2166783 22
25.463259 -5.2658596 0.84051073 75
25.527618 -5.4643679 0.81073833 74
25.602545 -5.6644902 0.77925742 73
25.66935 -5.8605475 0.75294709 71
25.738373 -6.0563154 0.73122424 76
25.774319 -6.2450709 0.72736543 69
25.830841 -6.4359202 0.71505135 19
25.986742 -6.4504342 1.0621024 55
26.297173 -6.3758159 1.070895 14
25.935732 -6.5873113 0.92939806 65
25.968498 -6.6465702 0.66626006 17
25.936247 -6.73277 0.77091742 41
26.646156 -6.3038998 1.0623989 13
25.998848 -6.8268361 0.67305934 25
26.247723 -6.8051333 1.0511438 44
26.961893 -6.2198763 1.0717467 19
26.530127 -6.7325644 1.0765976 31
26.133596 -6.9187007 0.94601697 23
26.106834 -7.0277958 0.64534551 49
26.149511 -7.0611382 0.7762329 36
27.258648 -6.1242814 1.0921141 14
27.372355 -5.9850335 1.1949506 2
26.860636 -6.666512 1.081278 27
26.594685 -7.1639838 1.0001683 8
26.771626 -7.0747285 1.0757375 4
27.190773 -6.5965381 1.0880762 17
27.003923 -6.99646 1.1297317 0
27.439184 -6.5008845 1.1345273 3
