# .PCD v0.7 - Point Cloud Data file format
VERSION 0.7
FIELDS x y z intensity
SIZE 4 4 4 4
TYPE F F F F
COUNT 1 1 1 1
WIDTH 130
HEIGHT 1
VIEWPOINT 0 0 0 1 0 0 0
POINTS 130
DATA ascii
25.961929 -6.1412802 1.031564 67
25.880726 -5.9356918 1.0514902 53
26.054804 -6.3502822 1.0086232 64
26.164289 -6.5604181 0.97928172 51
25.77914 -5.9586587 0.59868354 48
25.91254 -6.3664808 0.56845081 4
25.611712 -5.6870756 1.1655526 56
25.730383 -5.7618194 0.60918617 70
25.729406 -5.5273342 1.0946747 35
25.976494 -5.5432124 1.4695375 6
25.648924 -5.5536499 0.63845289 65
26.375278 -6.7992935 0.90716797 9
26.838678 -6.115756 1.1047312 30
25.648165 -5.3201404 1.1238967 24
25.874218 -5.3328447 1.5062931 20
25.570503 -5.3457909 0.66692764 69
26.911743 -5.9412785 1.0546658 16
26.960367 -6.3373389 1.0712916 26
25.584644 -5.1179681 1.1475035 21
25.800663 -5.1268258 1.531449 32
27.04483 -6.548512 1.0547125 16
25.487734 -5.1382189 0.70274639 71
27.029263 -6.7340126 1.0877905 1
25.439426 -5.0814509 0.61859953 62
25.531717 -4.9143357 1.1683235 18
25.403297 -4.9743443 0.80979705 68
25.731348 -4.9208856 1.5565302 35
25.402967 -4.9271564 0.74214911 70
26.563684 -5.0585198 1.6617965 1
25.379753 -4.8671165 0.99253088 75
25.431515 -4.7722597 1.1401951 50
25.34651 -4.8693061 0.59603143 60
25.334312 -4.7584338 0.77678746 73
25.565001 -4.6931529 1.2459793 1
25.45083 -4.7084694 1.2057365 13
25.655504 -4.7166719 1.5874743 41
25.322371 -4.720294 0.78154278 75
26.71361 -4.8884683 1.5896015 12
25.299532 -4.6407018 0.96647662 78
25.548313 -4.5800667 1.4237503 1
26.147327 -4.5892997 1.839797 15
25.624506 -4.5191278 1.6015913 38
25.324394 -4.5339837 1.1272455 60
25.259876 -4.63521 0.57260042 57
25.256493 -4.5150075 0.8150354 78
25.242935 -4.5152421 0.75552797 80
25.36204 -4.5004539 1.2472613 9
26.392715 -4.4373379 1.731459 19
25.570496 -4.4748092 1.5811036 36
25.37232 -4.4286437 1.2737255 4
25.204134 -4.3893638 0.94927675 83
25.46553 -4.3276229 1.3991011 0
25.700033 -4.3834362 1.6908811 5
25.338324 -4.3054471 1.2626022 5
25.573488 -4.3183646 1.6271111 24
25.21867 -4.2707534 1.1136461 83
25.182522 -4.3099074 0.85788375 80
26.135075 -4.3406329 1.6613153 3
25.459913 -4.2075915 1.5687286 37
25.155561 -4.3748722 0.56176603 49
25.256449 -4.1576324 1.26476 11
25.113569 -4.2435865 0.7562871 69
26.628786 -4.3031588 1.6081899 10
26.661999 -4.28475 1.6137601 13
25.086521 -4.1127014 0.94276851 85
26.090067 -4.0654497 1.6151521 1
25.540894 -4.122416 1.6457995 15
25.566944 -4.1052318 1.6873721 5
25.283648 -4.1047611 1.2942505 1
25.300611 -4.0398393 1.4120817 73
25.09086 -4.103097 0.91154438 84
25.110308 -3.9877675 1.1036109 86
25.519352 -3.9281185 1.6647148 6
26.53557 -4.0676851 1.677435 3
25.36297 -3.9237323 1.5505253 55
25.227367 -3.9056704 1.330471 95
26.427727 -3.9900515 1.6313696 4
25.150488 -3.8677337 1.2498827 89
25.027617 -3.9037843 0.95371914 87
24.990637 -3.9529293 0.75411248 17
25.430857 -3.8080916 1.6813283 18
26.476322 -3.8620119 1.7122884 5
24.972437 -3.8196766 0.93204802 92
25.168545 -3.7418013 1.4060088 72
26.281034 -3.6734185 1.6185741 10
25.454449 -3.7259235 1.7031564 37
25.572699 -3.7021055 1.778415 17
24.976995 -3.7055132 0.99053615 92
25.14361 -3.7031612 1.3821133 78
25.694246 -3.5685756 1.6065565 40
25.250498 -3.6226623 1.5289545 48
25.469393 -3.5213575 1.5883584 47
24.997604 -3.6900222 1.0862716 93
25.045584 -3.5639071 1.2273314 46
25.134789 -3.5090983 1.4008032 1
24.879969 -3.6486475 0.7382341 50
25.806456 -3.4312999 1.5952616 41
26.194677 -3.5256817 1.820381 11
24.925791 -3.5044954 1.0316092 85
24.888859 -3.5137267 0.89975804 87
24.858351 -3.5264699 0.5884642 21
25.112707 -3.4371092 1.3571705 4
24.932816 -3.3794661 1.0448774 19
25.76248 -3.3834927 1.591749 46
25.160738 -3.3209941 1.4052947 1
26.246086 -3.4311633 1.8420262 6
26.09791 -3.3298657 1.6243066 20
25.230268 -3.3154745 1.4645671 9
24.930313 -3.3145795 1.0489236 20
24.827045 -3.3290341 0.62540388 78
25.820015 -3.1959362 1.5828134 44
24.984497 -3.243247 1.1848524 59
25.470352 -3.2047989 1.512118 15
25.365664 -3.1559041 1.3280704 0
25.831604 -3.1066685 1.5053616 22
25.162977 -3.1239729 1.2597952 17
24.980808 -3.1287735 1.0439165 49
24.876888 -3.142451 0.62262648 45
25.436964 -3.0110557 1.2891443 5
25.970766 -3.0186927 1.5361649 24
26.108528 -2.9922786 1.5390944 8
25.458908 -2.9740844 1.3046864 3
25.133991 -2.9548206 0.99150133 58
25.028406 -2.9677677 0.56857091 14
25.922194 -2.9193444 1.2200418 1
25.660093 -2.8020024 1.2355959 42
26.176311 -2.7949662 1.2606601 8
25.44051 -2.7967098 0.86709619 24
26.026331 -2.6438928 1.0883281 13
25.856792 -2.6455696 0.69027406 54
