# .PCD v0.7 - Point Cloud Data file format
VERSION 0.7
FIELDS x y z intensity
SIZE 4 4 4 4
TYPE F F F F
COUNT 1 1 1 1
WIDTH 83
HEIGHT 1
VIEWPOINT 0 0 0 1 0 0 0
POINTS 83
DATA ascii
25.871469 -2.6358929 0.61575603 19
26.091873 -2.6700001 1.16118 2
25.819485 -2.8390143 1.2831367 2
26.289824 -3.0954504 1.0557669 0
25.406799 -3.1844773 1.4698433 2
26.134157 -3.0664666 1.6130023 13
26.128889 -3.2657876 1.6137618 19
26.126762 -3.46245 1.6167675 23
25.235756 -3.3553529 1.5518677 96
25.273382 -3.5524046 1.5362099 44
26.109951 -3.6587546 1.6287802 10
25.311512 -3.7515805 1.5245798 42
25.882029 -3.8213029 1.7400563 3
25.351088 -3.9505069 1.514635 62
25.421724 -4.1551723 1.4925017 14
26.109434 -4.0538712 1.6472758 1
26.149031 -4.2570972 1.6415166 1
26.588867 -4.2179909 1.7502722 0
26.607237 -4.3840599 1.5935107 10
26.21039 -4.464366 1.6301134 3
26.230129 -4.4806848 1.6137792 2
25.46772 -4.3548636 1.4860563 7
25.584364 -4.5699134 1.4478804 2
25.789888 -4.5611343 1.6627716 7
26.834572 -4.3568525 1.8272727 10
26.057133 -4.6334829 1.716765 18
26.201061 -4.6704021 1.8863169 9
25.66581 -4.6926017 1.5686872 36
25.571182 -4.75879 1.4722888 1
25.57675 -4.828721 1.458266 1
26.301928 -4.8735309 1.6267647 13
26.451607 -4.872335 1.6237711 16
25.871771 -4.9122252 1.7315205 29
25.703348 -4.9764867 1.4342195 1
25.86038 -5.0597768 1.5833465 37
26.421009 -5.0935674 1.597316 14
25.604916 -5.1366496 1.1342746 19
25.761757 -5.1877642 1.472224 13
25.794954 -5.1857743 1.414928 2
25.83812 -5.3856955 1.4216322 15
25.552567 -5.2776008 0.99776775 70
25.590263 -5.4331422 0.81927603 66
25.763906 -5.4772601 1.1548105 11
25.938395 -5.5262609 1.4891493 7
25.70587 -5.6083689 1.0217364 68
25.938959 -5.5950713 1.4050926 14
26.682673 -5.2013202 0.77971089 1
25.900972 -5.6553798 1.3475533 20
25.652384 -5.5926843 0.6251412 61
27.425545 -5.55265 1.1355395 3
25.801554 -5.7700605 1.2333734 30
25.728703 -5.7541571 0.84804499 70
25.875069 -5.9217949 1.0371945 44
25.779037 -5.9032602 0.6589309 79
25.852562 -6.050096 0.8844524 62
26.753698 -5.9702015 1.0601512 9
26.281816 -6.1448727 1.1051546 31
26.677156 -6.1067338 1.0849779 25
27.327684 -5.6810446 1.0149176 20
27.417719 -5.6922994 1.2085871 1
26.992683 -6.0454445 1.1050353 26
26.748962 -6.1618972 1.0978917 25
26.035931 -6.2136898 1.0566328 57
27.291546 -5.9750309 1.1345102 21
27.481882 -5.8740935 1.2147391 1
25.863356 -6.1833072 0.71272105 25
25.977463 -6.3232393 0.92133546 70
26.546169 -6.4481959 1.0800864 25
26.901167 -6.3887377 1.0670987 24
25.974438 -6.4435134 0.7571941 28
26.261999 -6.4967608 1.0495987 45
26.144238 -6.5819817 0.94088203 55
26.13069 -6.6896067 0.784504 51
26.177866 -6.8127155 0.59486037 41
26.928774 -6.4194531 1.0674928 26
26.543154 -6.7713251 1.0177078 20
26.438196 -6.8473234 0.90552664 10
26.811604 -6.7298837 1.0585992 13
27.221802 -6.3649054 1.1007568 13
27.535713 -6.3083544 1.1264658 1
27.042887 -6.616271 1.044225 11
26.451521 -6.9543533 0.73487556 8
27.055191 -6.6781969 1.1110381 2
