# .PCD v0.7 - Point Cloud Data file format
VERSION 0.7
FIELDS x y z intensity
SIZE 4 4 4 4
TYPE F F F F
COUNT 1 1 1 1
WIDTH 73
HEIGHT 1
VIEWPOINT 0 0 0 1 0 0 0
POINTS 73
DATA ascii
26.017405 -3.2560546 0.88192338 20
26.145563 -3.2572958 0.9042213 15
25.907003 -3.3319046 0.83828628 20
25.717896 -3.4107356 0.74705249 46
25.675852 -3.4077759 1.0319619 23
26.322252 -3.276942 1.2220865 15
26.24441 -3.466579 1.2446306 2
25.626072 -3.425998 0.57071191 150
25.550589 -3.4884074 0.64700156 150
26.499878 -3.7040708 1.1133091 1
25.42977 -3.56899 1.1374854 41
25.318317 -3.5779917 0.71191126 66
25.328819 -3.5549207 0.57554621 16
25.692209 -3.7819476 1.4795786 14
25.278906 -3.7418582 1.1996205 53
26.370365 -3.6669655 1.6553732 4
25.163023 -3.7509689 0.77727258 88
26.382648 -3.8697388 1.6420773 12
25.506422 -3.9480605 1.5600765 81
25.216032 -3.926167 1.2233533 42
25.073105 -3.9316611 0.81424475 92
26.36586 -4.0663891 1.64459 24
25.248592 -4.1231046 1.2036524 51
25.502398 -4.1396604 1.5591909 43
25.102327 -4.1292849 0.79335618 92
25.302582 -4.3261518 1.1753136 85
26.460197 -4.2781873 1.600624 5
25.550837 -4.3410778 1.5353863 46
25.142284 -4.3305449 0.76970249 41
25.371359 -4.5288029 1.1430993 86
26.287281 -4.4474802 1.6788248 2
25.590458 -4.5417285 1.519048 67
25.257797 -4.5441637 0.71194559 10
25.686563 -4.7512989 1.4797609 16
25.430088 -4.7340555 1.1187124 78
26.432009 -4.671875 1.6176819 0
25.399382 -4.7647572 0.64227837 17
26.391214 -4.860477 1.6408566 2
25.500278 -4.9395986 1.0892633 77
25.442955 -4.9664841 0.6238842 60
25.748671 -4.9548788 1.4575741 4
26.414919 -5.0571904 1.6400105 6
25.909388 -5.1786447 1.3932735 0
25.572895 -5.1436892 1.0622635 78
26.299208 -5.2294631 1.7032746 20
27.03878 -4.9618425 1.8457443 0
25.549004 -5.1807103 0.57791579 62
25.872871 -5.3594446 1.4235098 0
25.65443 -5.3498883 1.0350221 75
26.49267 -5.4609833 1.6315311 16
25.627892 -5.3873849 0.54827023 54
25.731321 -5.555222 1.0110525 76
25.697027 -5.5935149 0.52634096 43
26.585905 -5.6739082 1.6064725 12
25.81782 -5.7646012 0.98771781 68
25.917149 -5.9759998 0.95898026 69
26.128984 -5.9845128 1.3595212 5
26.20982 -6.1904769 1.3458985 17
26.001139 -6.1840596 0.93938655 68
26.113403 -6.398819 0.91247028 52
26.199858 -6.6065903 0.8984316 55
26.882921 -6.5452809 1.0611526 24
26.895374 -6.7396421 1.0880337 32
27.723583 -6.1241179 1.1206193 6
26.300091 -6.8183093 0.88083345 68
27.733896 -6.3258247 1.1409085 6
27.017752 -6.9584241 1.0636871 28
26.398285 -7.0296741 0.86789793 58
26.554237 -7.2546439 0.82863426 23
27.143425 -7.1796556 1.0416068 22
27.793909 -6.5360413 1.1410517 2
27.954786 -6.7720709 1.0985584 0
27.122339 -7.3577995 1.0884488 0
