# .PCD v0.7 - Point Cloud Data file format
VERSION 0.7
FIELDS x y z intensity
SIZE 4 4 4 4
TYPE F F F F
COUNT 1 1 1 1
WIDTH 118
HEIGHT 1
VIEWPOINT 0 0 0 1 0 0 0
POINTS 118
DATA ascii
26.135353 -3.3356967 0.83587289 21
26.348747 -3.344511 1.2194409 7
25.729584 -3.4753308 1.0116628 22
26.235077 -3.5272315 1.2530318 1
25.704378 -3.497642 0.53985715 150
26.47654 -3.7641516 1.1249291 5
25.48963 -3.6351292 1.1121994 35
25.382915 -3.6462314 0.68229407 62
25.764826 -3.8494105 1.444364 1
26.38945 -3.7314484 1.645669 5
25.322687 -3.8021631 1.1781888 62
26.394335 -3.9305005 1.6328797 12
25.209229 -3.813972 0.75419241 81
25.560667 -4.0089159 1.5282925 48
26.400414 -4.1293292 1.6208092 25
25.242668 -3.9824386 1.2050123 53
25.120588 -3.9932342 0.78533119 105
25.250542 -4.1757388 1.1924214 53
25.516161 -4.1932063 1.5417271 71
26.307083 -4.3108301 1.6562994 9
25.119619 -4.1845441 0.77710032 87
25.299006 -4.374918 1.1640911 88
25.548828 -4.3901258 1.5237113 45
25.154716 -4.3826232 0.75122482 55
25.361656 -4.5779433 1.130017 87
25.917717 -4.4334583 1.8286649 5
25.600113 -4.5908093 1.4967256 52
25.265663 -4.5965118 0.69014257 8
26.31337 -4.7024479 1.6512104 1
25.655661 -4.7927656 1.4727706 48
25.431152 -4.7816029 1.0972582 88
25.545057 -4.844069 0.54808211 12
26.773451 -4.611115 1.7077023 1
26.704277 -4.7648926 1.5898114 3
26.340687 -4.8560638 1.602131 0
26.393515 -4.9129529 1.616766 1
25.886082 -4.9228735 1.6597472 7
25.694258 -4.9916983 1.4594253 0
25.500172 -4.986444 1.065671 83
26.3459 -5.0996046 1.6444755 1
26.983387 -5.0208626 1.736318 15
26.717337 -5.1276431 1.6994815 20
25.452345 -5.0188351 0.59574908 56
25.82802 -5.0697813 1.5337124 20
25.581989 -5.1955409 1.0307734 76
25.773865 -5.3631988 1.2519785 2
26.471075 -5.2308941 1.6563985 12
26.247965 -5.2695594 1.6965644 13
26.131105 -5.3112283 1.6551957 13
26.57169 -5.2797976 2.0274899 3
25.851614 -5.4056592 1.4015715 1
25.980003 -5.4279423 1.5718288 39
25.553648 -5.2313046 0.54751432 52
25.654381 -5.4008832 1.0034785 77
26.233154 -5.4579115 1.7146709 11
25.951704 -5.5707588 1.4296936 0
25.749849 -5.5110412 1.1056703 51
26.723728 -5.465229 1.8096194 3
26.317289 -5.6685324 1.6791835 30
26.812269 -5.6326747 1.6154333 13
26.525261 -5.7141218 1.5972764 22
26.222864 -5.7890792 1.5665438 26
25.752384 -5.6125865 0.96747071 70
25.747759 -5.6608219 0.94847286 63
25.831125 -5.8197451 0.94266301 71
25.934319 -5.8560576 1.1217186 32
26.130735 -5.9099855 1.4502094 12
25.817509 -5.8251338 0.75400567 57
25.91717 -5.9969239 0.9673413 70
25.923729 -6.0268226 0.91422826 68
25.882296 -5.9883814 0.55772513 51
25.97168 -6.1525092 0.77884573 61
26.357552 -6.2449698 1.446804 11
26.116585 -6.1840591 1.1361088 12
26.226784 -6.2444444 1.2928872 13
26.278208 -6.3576007 1.3218731 17
26.02718 -6.2417221 0.88406181 67
26.080576 -6.3119512 0.98964608 64
26.345753 -6.4600058 1.2607341 18
26.102764 -6.4418569 1.2424959 40
26.042891 -6.3111262 0.57877308 55
26.126308 -6.4525809 0.85705537 66
26.115229 -6.4557633 0.80830091 58
26.248732 -6.6064811 1.0115416 48
26.238039 -6.6667166 0.82678413 61
26.181013 -6.606442 0.61060292 64
26.25388 -6.7337866 0.84499556 58
26.428501 -6.8789949 1.0322495 56
26.641964 -6.818532 1.0946726 27
26.304295 -6.8693438 0.82277429 62
26.830227 -6.7744832 1.0635734 22
27.034735 -6.8007159 1.0774908 25
27.700132 -6.3783555 1.1101141 18
27.775042 -6.3152738 1.1353806 10
27.628847 -6.4219518 1.0351269 12
27.353313 -6.7586141 1.0970683 29
27.743042 -6.5863471 1.1133026 12
26.860258 -6.9683776 1.0782666 29
27.702099 -6.7176876 1.1056515 15
26.380283 -6.9800558 0.89078891 62
26.274445 -6.8604131 0.66923857 17
26.649315 -7.1387572 1.0348585 46
26.908287 -7.1013474 1.0773197 29
26.400126 -7.0794358 0.8079949 50
26.370913 -7.090373 0.73201561 16
26.542576 -7.2148409 0.92191261 55
26.53153 -7.2996268 0.7788347 49
26.522362 -7.3092799 0.76788849 46
26.574381 -7.4245038 0.58068848 43
27.000681 -7.1936846 1.0467935 29
27.270607 -7.0878296 1.0774558 22
27.089151 -7.4027152 1.0411662 11
26.755487 -7.5419722 0.70808911 13
27.608458 -7.0628047 1.0911198 10
27.825426 -6.8006229 1.1041516 6
27.825071 -6.9935317 1.1329895 0
27.926165 -6.6418719 1.1734154 1
27.975565 -7.0391703 1.0940402 0
