# .PCD v0.7 - Point Cloud Data file format
VERSION 0.7
FIELDS x y z intensity
SIZE 4 4 4 4
TYPE F F F F
COUNT 1 1 1 1
WIDTH 61
HEIGHT 1
VIEWPOINT 0 0 0 1 0 0 0
POINTS 61
DATA ascii
26.190645 -6.451654 0.60328478 55
26.138063 -6.3358226 0.79683286 59
26.065454 -6.2345085 0.57296801 52
26.015955 -6.1088047 0.76664823 59
26.097675 -6.2191687 0.98511529 64
25.969685 -5.9832444 0.95638305 65
26.133259 -6.121284 1.1361187 18
25.896084 -5.8587875 0.73668879 60
25.999222 -5.8744917 1.1098982 45
25.8106 -5.7227888 0.5220595 41
25.836805 -5.7220888 0.93488967 69
25.773855 -5.58389 0.71124023 65
26.007439 -5.7563448 1.2709713 1
26.200638 -5.9138441 1.4338365 4
25.83753 -5.5966201 1.101988 59
25.703688 -5.4344468 0.91527039 68
26.006174 -5.635428 1.4386346 2
26.201025 -5.7995744 1.5980291 18
25.875055 -5.4767323 1.2512368 6
25.611757 -5.2775717 0.70626211 59
26.0891 -5.5301909 1.5627027 28
25.686827 -5.2997117 1.0879164 72
26.276596 -5.6991835 1.7261384 16
26.685911 -5.6706791 1.7086595 14
26.236635 -5.4354763 1.6616914 9
25.744761 -5.1759167 1.2255836 12
25.550232 -5.1269941 0.90388495 68
25.942402 -5.2312522 1.5454965 22
26.606878 -5.3863492 1.6583762 13
26.645319 -5.5383673 1.8896079 4
25.750263 -5.0429244 1.3851564 9
25.475483 -4.9568443 0.68715101 13
25.53496 -4.9836063 1.0739642 85
26.001841 -5.109992 1.6786585 9
26.543375 -5.0858536 1.5966349 0
26.841129 -5.3039103 1.7182453 18
25.568151 -4.847146 1.2210863 82
25.786789 -4.9117069 1.5283552 56
25.372219 -4.7915659 0.90382612 71
26.702105 -5.4230285 2.027657 3
25.877869 -4.7880793 1.6470112 9
25.554092 -4.7013826 1.3897903 54
25.377819 -4.6452346 1.0632445 78
26.921963 -5.0214624 1.5899549 3
27.099033 -5.2210164 1.7677857 8
25.615185 -4.5683351 1.5193055 48
25.91515 -4.6535201 1.7879131 18
25.410187 -4.5027175 1.2084564 40
26.733765 -4.6621599 1.5799258 4
25.804163 -4.4561977 1.5897061 40
25.429485 -4.3581028 1.3581032 5
26.096283 -4.3615274 1.6105345 29
27.041851 -4.899425 1.7000504 0
27.324011 -5.1275625 1.8341105 5
25.58964 -4.2351556 1.4369757 3
25.825796 -4.1229234 1.4815873 13
26.427052 -4.2670884 1.6171139 30
26.75453 -4.5151606 1.7291658 1
26.594934 -4.1384797 1.6980443 1
26.103773 -4.0142021 1.509084 20
26.351805 -3.8950737 1.5484538 20
