# .PCD v0.7 - Point Cloud Data file format
VERSION 0.7
FIELDS x y z intensity
SIZE 4 4 4 4
TYPE F F F F
COUNT 1 1 1 1
WIDTH 133
HEIGHT 1
VIEWPOINT 0 0 0 1 0 0 0
POINTS 133
DATA ascii
26.146015 -3.5062804 0.61718935 22
26.022572 -3.6021006 0.84480846 24
26.418325 -3.4621816 0.67572045 20
26.104494 -3.5954618 0.90806568 29
25.881897 -3.6687059 0.73964661 48
25.885784 -3.6878233 0.83806109 42
26.436779 -3.5158503 0.92366368 2
26.362993 -3.5162077 1.0050039 22
25.699827 -3.7795053 0.75224227 55
26.004204 -3.6653087 1.1696794 49
26.273706 -3.614692 1.2071725 53
25.707054 -3.7515323 0.9764542 54
26.301517 -3.6494865 1.2260891 42
25.972361 -3.7219906 1.2044322 46
25.581913 -3.8194935 0.88481385 48
25.748213 -3.8064227 1.1368022 45
26.044603 -3.7760749 1.2946131 1
25.50687 -3.8697665 0.66927224 55
26.497972 -3.9433291 1.1931511 1
25.797121 -3.8294897 1.265857 18
25.558193 -3.8919117 1.0530181 39
25.379597 -3.9235966 0.63800377 53
26.425186 -3.816216 1.4011203 5
25.490038 -3.9102871 1.0638064 34
25.341549 -3.9596424 0.57493156 22
25.783918 -3.9428227 1.3500586 2
26.669006 -3.74753 1.3490161 3
25.409065 -3.9789059 0.95027584 65
25.380737 -3.9845152 0.98255616 63
26.309113 -3.8927352 1.5129066 21
25.554186 -4.015213 1.2837691 14
25.311411 -4.0740509 0.82277012 80
25.24563 -4.0933657 0.68925798 87
25.365891 -4.0808272 1.111464 46
25.697187 -4.1086621 1.4271576 0
25.401461 -4.0969791 1.1839833 50
26.158058 -4.0700798 1.5811162 42
25.231966 -4.168828 0.68429381 94
25.286547 -4.1649642 1.0307435 51
25.287527 -4.1797056 1.0657831 46
25.199474 -4.2779832 0.699072 91
26.158653 -4.2689533 1.5871069 41
25.160809 -4.2606797 0.54361916 22
25.213806 -4.2700462 0.9247306 94
25.289759 -4.2572427 1.1352438 48
25.439732 -4.1650796 1.4382571 0
25.206789 -4.3680253 0.75285614 82
25.271645 -4.355145 1.0417377 18
25.526972 -4.2697611 1.4971154 42
25.508003 -4.3692217 1.4110833 5
25.217625 -4.4728398 0.67872071 81
25.329613 -4.4551735 1.1061416 56
25.187433 -4.4627357 0.58521372 51
26.126236 -4.4592943 1.6078559 42
25.309443 -4.5544167 1.0317929 76
25.570854 -4.466815 1.4679836 33
25.343414 -4.6839056 0.60658413 7
25.384302 -4.6517978 1.074177 84
25.513885 -4.5638566 1.4166822 38
25.613684 -4.6623011 1.4442787 49
25.386118 -4.7607298 1.0024426 76
25.930164 -4.6181173 1.7062657 21
25.611343 -4.7746263 1.3819369 71
26.581852 -4.3240128 1.8821238 2
25.445885 -4.8539653 1.039431 83
25.666035 -4.8617058 1.4170895 80
25.484684 -4.9732447 0.96638966 67
26.076807 -4.83883 1.6525452 1
25.522509 -5.0558043 1.0017763 73
25.709734 -4.9873257 1.3490345 17
25.584021 -5.1857285 0.93323821 63
26.07464 -5.0326242 1.6685126 1
25.628159 -5.2682114 0.95249861 70
26.998388 -4.9980102 1.7344402 0
26.130322 -5.2363777 1.6622034 5
27.068083 -5.211678 1.7204288 11
25.685532 -5.3967843 0.90156871 63
25.719255 -5.4750247 0.91317344 69
26.192993 -5.4415526 1.6530455 11
26.732218 -5.3394604 1.8861246 11
25.78372 -5.611824 0.8739112 59
26.168184 -5.6298947 1.6883214 18
26.658918 -5.5176501 1.9391587 0
26.145514 -5.6561742 1.2024653 0
25.956085 -5.673213 1.300802 0
25.817125 -5.684433 0.87313861 66
26.387587 -5.8708091 1.6157614 28
26.153391 -5.9052444 1.2204963 0
25.885674 -5.8281446 0.84734893 58
25.914774 -5.8950143 0.83524096 64
25.987703 -6.0424929 0.82281286 57
26.015059 -6.1051311 0.79974836 62
26.277426 -6.1221166 1.1767887 0
26.099586 -6.2587781 0.79778612 56
26.665379 -6.1287317 1.5208559 16
26.125847 -6.317966 0.76153433 59
26.293882 -6.3115878 1.1868038 1
26.209146 -6.4756937 0.77544123 55
26.371614 -6.5142841 1.1726449 3
26.2337 -6.5296655 0.72924578 59
26.516966 -6.5079646 1.1428086 0
26.322084 -6.6909537 0.75529701 57
26.343229 -6.7399559 0.69650418 66
26.441135 -6.67731 1.2139895 23
26.436144 -6.7119551 1.1649929 24
26.408503 -6.9024372 0.75032592 60
26.408476 -6.9385834 0.69074166 47
26.65921 -6.9528127 1.0863045 43
26.830318 -6.9662428 1.0726681 21
26.780827 -7.1659355 1.0607654 45
26.494778 -7.1109738 0.74742663 21
26.755465 -7.2360396 1.0402027 43
26.517885 -7.1492391 0.66527027 11
26.927315 -7.1784692 1.0670033 31
26.993887 -7.1484385 1.0844221 28
26.634367 -7.3325119 0.7224384 20
26.702869 -7.3764772 0.90756518 51
26.924107 -7.3831182 1.0254636 41
27.330433 -7.0785913 1.0876318 29
26.794611 -7.4048753 0.5602833 14
26.740734 -7.5393591 0.73287302 41
26.782084 -7.5583839 0.69639957 24
27.804478 -6.6017179 1.042465 16
27.806602 -6.7974944 1.07697 25
27.691994 -7.0099812 1.0801722 20
27.095293 -7.4109631 1.0357265 30
27.148731 -7.6447797 0.98275763 16
27.23563 -7.634624 1.0157335 8
27.357994 -7.5571766 1.0449454 13
27.888309 -7.0133734 1.0784438 11
27.614399 -7.475843 1.087623 3
27.885483 -7.2055006 1.1214441 1
27.99378 -6.9188728 1.102603 7
