# .PCD v0.7 - Point Cloud Data file format
VERSION 0.7
FIELDS x y z intensity
SIZE 4 4 4 4
TYPE F F F F
COUNT 1 1 1 1
WIDTH 68
HEIGHT 1
VIEWPOINT 0 0 0 1 0 0 0
POINTS 68
DATA ascii
26.87565 -7.6524768 0.59699678 22
26.819153 -7.5369921 0.78672123 25
26.832024 -7.4372344 0.94201589 24
26.646044 -7.3145137 0.75508803 27
26.969488 -7.3667531 1.041419 30
26.63043 -7.1975064 0.92376184 58
27.27313 -7.3383231 1.0649568 24
26.477655 -7.0671053 0.72079509 21
26.701273 -7.0990319 1.0515147 48
26.949278 -7.0448918 1.0984981 31
26.471418 -6.9445949 0.88589633 59
27.315163 -7.0126467 1.0953642 27
27.60466 -7.3079162 1.0791036 12
26.368975 -6.8114667 0.6624918 58
26.484804 -6.8220458 1.040699 49
26.313002 -6.6649456 0.85159039 59
27.696281 -6.978569 1.0871847 20
27.860037 -7.2542214 1.1293372 5
26.480888 -6.6947331 1.2030511 23
27.46464 -6.6590543 1.0796672 20
26.236347 -6.5210981 0.61920524 58
26.59549 -6.5910673 1.3120441 13
26.282257 -6.5220752 1.0279481 53
28.022804 -6.9249949 1.1084796 5
26.32229 -6.3966365 1.1695358 5
27.809835 -6.5984192 1.089765 18
26.146494 -6.3597193 0.82313251 59
28.035599 -6.7792273 1.0945706 6
27.896788 -6.5517073 1.1086795 13
26.089136 -6.2032475 1.0124379 67
27.809425 -6.3324113 1.1001635 18
27.964973 -6.489491 1.1839432 2
26.05006 -6.1964755 0.60285044 53
26.117729 -6.0653386 1.1588875 15
26.322605 -6.1159735 1.4854972 17
25.967493 -6.0281081 0.80476278 56
26.464048 -6.005105 1.5780572 23
26.615339 -5.8859048 1.5872784 22
26.695274 -5.907908 1.6308172 15
25.901232 -5.8635788 0.99626839 65
26.976812 -5.8162265 1.6632735 4
26.136707 -5.7744784 1.4625722 8
25.920692 -5.7166438 1.1449647 26
26.114288 -5.6208811 1.6283156 44
26.228415 -5.615447 1.7224387 11
26.311306 -5.5086656 1.6908183 15
25.959019 -5.4153666 1.4351566 1
26.311172 -5.4387693 1.6484034 8
26.551363 -5.4007101 1.7348986 26
26.841749 -5.2972856 1.759688 17
26.802866 -5.3202205 1.8963299 4
26.192696 -5.2272091 1.6677839 1
25.960356 -5.2594137 1.5843141 25
27.045486 -5.1671681 1.7601955 8
26.547022 -5.0484381 1.6198834 1
27.154352 -5.1952777 1.7745562 5
26.083731 -5.1251903 1.6791621 2
26.168266 -5.0283442 1.6483021 1
26.923841 -4.9500189 1.6004459 3
26.127974 -4.8285685 1.6381216 1
25.861895 -4.5900412 1.7328824 23
26.094076 -4.4326997 1.6056125 40
26.085043 -4.2354913 1.5904014 40
26.57884 -4.2934322 1.8591601 3
25.13129 -4.3242068 0.54072207 36
26.066444 -4.0367198 1.5807675 39
26.234703 -3.8624213 1.4895834 16
26.503321 -3.696039 1.3557446 1
