# .PCD v0.7 - Point Cloud Data file format
VERSION 0.7
FIELDS x y z intensity
SIZE 4 4 4 4
TYPE F F F F
COUNT 1 1 1 1
WIDTH 78
HEIGHT 1
VIEWPOINT 0 0 0 1 0 0 0
POINTS 78
DATA ascii
26.696016 -7.4591236 0.62307775 18
26.670725 -7.2861123 0.51702672 3
26.655424 -7.3487535 0.80331814 47
26.685743 -7.2552481 0.94878846 56
26.488726 -7.1305971 0.76752859 22
26.805052 -7.1790595 1.0547738 45
26.508476 -7.0224953 0.91963696 62
26.373188 -6.8976855 0.70983851 51
27.085478 -7.1399264 1.0883027 29
26.549307 -6.9180398 1.063199 48
26.850914 -6.8709817 1.0838166 20
26.362511 -6.7732258 0.87994307 57
26.272593 -6.6404295 0.65194553 60
27.239477 -6.8399477 1.0706253 29
27.468721 -7.1185856 1.0777078 21
26.184601 -6.4894171 0.85831869 58
26.15625 -6.5993099 1.1374915 45
26.376776 -6.5225525 1.1953075 5
27.564329 -6.7869763 1.0881629 24
26.118746 -6.3481374 0.62078029 57
27.797693 -7.0801206 1.096496 9
26.173775 -6.352416 1.0241039 57
27.792789 -6.8821416 1.0715066 16
27.885916 -7.0936422 1.0819521 2
27.656378 -6.6576877 1.083514 23
26.362234 -6.3896651 1.3631697 19
26.191244 -6.220088 1.1753428 7
26.015234 -6.1847534 0.83305788 61
27.878685 -6.7256789 1.1144987 14
27.707886 -6.4095454 1.0790688 25
26.39352 -6.2648931 1.5067971 12
26.3915 -6.1915441 1.6031886 1
25.973452 -6.0334053 1.0128788 69
25.931553 -6.0247192 0.60707825 50
26.389685 -6.0054502 1.5620992 20
26.209496 -5.9464531 1.4840858 18
25.989496 -5.8932843 1.1664166 21
25.850914 -5.8592105 0.80713826 57
28.020887 -6.6210065 1.2181286 0
27.895912 -6.3068967 1.1604234 2
26.144587 -5.7683663 1.6312265 23
26.133196 -5.7876353 1.6738288 24
26.509054 -5.7195559 1.6612289 19
25.777481 -5.694726 1.0011979 64
27.140285 -5.747479 1.6601027 1
25.991392 -5.6010604 1.4760029 7
26.616283 -5.5927439 1.7674011 12
25.795078 -5.547864 1.1511111 38
26.068195 -5.5655713 1.6310358 46
25.822201 -5.4003386 1.2933536 0
26.589512 -5.4480424 1.86072 7
26.044289 -5.4620581 1.6064935 24
26.034168 -5.3688936 1.6116129 22
26.203909 -5.3406653 1.6876997 2
25.767122 -5.235744 1.4722773 1
26.601204 -5.4398975 1.9247115 16
26.657099 -5.2681193 1.6372375 4
26.722 -5.2789006 1.7703627 18
25.941437 -5.1623921 1.6218275 18
26.95647 -5.1648235 1.656404 16
25.828985 -5.093966 1.5910715 22
26.958715 -5.1231523 1.6375006 15
25.968559 -4.9622173 1.6752638 1
25.84383 -4.9521952 1.6373857 13
26.411325 -4.8778415 1.62525 0
27.169376 -5.0403595 1.7122607 7
26.899702 -4.9159284 1.6347576 3
26.760187 -4.76932 1.6189843 3
25.785631 -4.7521768 1.638692 9
26.811466 -4.703289 1.6478239 2
26.698 -4.4852276 1.6756562 2
25.81242 -4.5643716 1.6025021 21
25.805767 -4.3692055 1.5842227 43
26.455349 -4.2524624 1.7617944 21
25.77647 -4.1720257 1.579061 46
25.912691 -3.9953685 1.5020677 15
26.401325 -3.8618629 1.263455 2
26.342197 -3.6535747 1.2813971 0
