# .PCD v0.7 - Point Cloud Data file format
VERSION 0.7
FIELDS x y z intensity
SIZE 4 4 4 4
TYPE F F F F
COUNT 1 1 1 1
WIDTH 54
HEIGHT 1
VIEWPOINT 0 0 0 1 0 0 0
POINTS 54
DATA ascii
27.242239 -7.6708889 0.90126467 1
27.2841 -7.5744691 1.0430716 6
27.381313 -7.4889879 1.1633037 0
27.35149 -7.2671289 1.0606743 23
27.019447 -7.2986207 1.0497452 33
26.83993 -7.5939746 0.64368856 30
26.797304 -7.4696674 0.82893473 24
26.822895 -7.363966 0.97797483 45
26.814348 -7.390615 0.54019225 12
27.664623 -7.2211208 1.0856616 10
27.048817 -6.9454155 1.0859932 27
26.592394 -7.2087431 0.81087488 43
27.380888 -6.8944898 1.0987263 28
26.60745 -7.0872836 0.96659923 61
26.709249 -6.9861627 1.0823244 45
28.009485 -7.1815381 1.0962307 2
26.572006 -7.0992889 0.54496044 4
27.768311 -6.8523545 1.087792 22
26.431028 -6.9298997 0.77705121 54
26.427267 -6.7966943 0.94064415 52
28.021538 -6.7700272 1.1403762 5
26.34609 -6.7885795 0.54517841 22
26.324268 -6.6435862 0.71954238 62
27.873589 -6.4287839 1.0898169 18
26.305342 -6.6294556 1.158475 26
26.4317 -6.5230355 1.259437 16
26.773178 -6.3208475 1.4217426 6
27.992319 -6.3029661 1.1997545 1
26.480438 -6.3950038 1.3959254 18
26.2444 -6.4812555 0.91920042 65
26.449041 -6.2393703 1.1426213 0
26.229338 -6.3323317 1.0865753 42
26.137396 -6.3127718 0.7010119 54
26.42626 -6.085021 1.3098762 0
26.057589 -6.1431832 0.89952314 60
26.034899 -5.9858747 1.0698173 52
26.257252 -5.8953996 1.5428315 20
26.044559 -5.8345995 1.2203574 3
26.72327 -5.690372 1.6404734 16
26.22695 -5.737586 1.7089082 26
25.988705 -5.6679835 1.4023049 0
26.059202 -5.526916 1.5205246 18
26.677586 -5.5250216 1.8115083 11
26.121994 -5.3825727 1.6407171 17
26.478592 -5.2961669 1.6300271 1
26.701447 -5.3709531 1.9500264 15
26.82152 -5.1988235 1.6258675 6
27.083052 -5.0839119 1.6593118 20
25.412926 -4.7735438 0.55806077 4
25.242739 -4.5551057 0.65242219 16
25.195047 -4.3603563 0.69024408 89
25.186802 -4.1721711 0.71059489 101
25.255524 -3.9973938 0.69238389 83
25.390869 -3.8265257 0.64542234 51
