# .PCD v0.7 - Point Cloud Data file format
VERSION 0.7
FIELDS x y z intensity
SIZE 4 4 4 4
TYPE F F F F
COUNT 1 1 1 1
WIDTH 105
HEIGHT 1
VIEWPOINT 0 0 0 1 0 0 0
POINTS 105
DATA ascii
27.085117 -7.4375939 0.96975112 24
26.856445 -7.2024493 1.0228378 38
26.706936 -6.9857535 1.0432998 46
27.827515 -7.1833549 1.0616125 4
27.715733 -6.9700365 1.0630096 21
27.546402 -6.7467103 1.0926238 25
26.545948 -6.766336 1.0718631 45
26.416327 -6.8538527 0.68700802 46
26.414282 -6.7502713 0.8536014 57
27.522684 -6.5494146 1.0610881 19
26.343651 -6.6567926 0.62069714 63
26.271248 -6.6153941 1.0841498 25
26.376596 -6.5319943 1.1973604 7
27.805002 -6.4697666 1.0413859 14
26.277359 -6.5315151 0.81491315 60
26.457073 -6.4382043 1.3209485 15
26.183273 -6.5077872 1.1986369 41
26.244461 -6.4110885 0.99639684 60
26.506943 -6.3367949 1.4585478 11
26.293207 -6.3470411 1.1062194 17
27.953201 -6.3732042 1.1441442 10
26.206514 -6.4215302 0.58270931 56
26.27677 -6.3013139 1.1414785 13
26.133005 -6.2861376 0.78477234 60
26.20628 -6.1446567 1.1086274 18
26.407001 -6.1459417 1.5204426 15
26.073938 -6.1514883 0.97584826 68
26.310883 -6.0680337 1.4485799 14
26.2859 -5.9385948 1.1998187 0
26.399839 -5.9602666 1.5665269 23
26.64843 -5.8794942 1.6145208 17
26.094954 -6.0305352 1.1267135 23
26.044781 -6.1563702 0.56077182 51
26.942533 -5.8001308 1.6465412 4
26.298376 -5.9374566 1.5325021 21
25.985161 -6.0168333 0.75497806 60
26.059904 -5.9298358 1.142791 18
26.142895 -5.7826982 1.4246985 1
27.054403 -5.6591659 1.6326472 5
25.912941 -5.871532 0.95233577 69
26.187027 -5.7289534 1.550441 28
25.975838 -5.7258425 1.1495833 17
25.923599 -5.7391295 1.1087356 50
25.882961 -5.8695726 0.54144871 45
25.826593 -5.7217455 0.73254347 65
26.129601 -5.6479058 1.5903925 28
25.946001 -5.6094289 1.2580014 2
26.086201 -5.4958129 1.3490046 0
26.207447 -5.529748 1.7099587 27
26.079002 -5.522572 1.5665275 39
26.467581 -5.4361563 1.7505053 14
25.862034 -5.5192723 1.1723433 15
25.748808 -5.5697694 0.93223059 68
26.544041 -5.3816047 1.8254126 11
25.730349 -5.4261093 1.1000956 68
25.647726 -5.402564 0.72000653 58
25.976376 -5.3394876 1.5579785 26
25.999535 -5.3215733 1.5752921 39
26.623713 -5.3201876 1.8393648 20
25.760962 -5.3133345 1.1938641 14
25.770788 -5.289999 1.2393365 9
26.707882 -5.2141414 1.7249752 17
26.04759 -5.2088261 1.6820828 8
26.477472 -5.130702 1.6425307 1
25.567854 -5.2438612 0.91904515 64
26.921503 -5.2240505 1.8669238 3
25.902891 -5.1163063 1.5925729 37
26.974182 -5.0585108 1.5856832 8
26.983206 -5.0586724 1.5750655 8
25.67893 -5.1111345 1.206369 14
25.528524 -5.0907021 1.0952324 73
25.78849 -5.0038829 1.5412064 46
25.566364 -4.9469271 1.2329029 69
25.820683 -4.9143052 1.6082298 23
25.56365 -4.9034429 1.2408577 64
25.865782 -4.8670979 1.6584123 9
26.211443 -4.7657762 1.653722 1
26.87487 -4.8489084 1.6056253 3
27.044714 -4.9143496 1.7055132 0
26.646965 -4.670526 1.6133287 4
25.562813 -4.7965145 1.3874171 72
25.747404 -4.713819 1.6195264 18
26.753939 -4.6333823 1.6393375 3
25.467941 -4.701417 1.2662398 76
26.869326 -4.5421271 1.6660118 1
26.630041 -4.4198318 1.6759356 5
25.590187 -4.6483974 1.526683 34
25.788626 -4.5215535 1.5846087 31
25.764101 -4.5235243 1.595186 26
26.05341 -4.4001431 1.6119155 42
25.380449 -4.4981933 1.291517 9
26.371586 -4.2787924 1.6180583 22
25.75827 -4.3295407 1.5828391 48
26.450825 -4.1998444 1.7412868 16
25.300007 -4.295042 1.3149579 4
25.740023 -4.1340857 1.5778297 53
26.428391 -4.1248398 1.7371045 1
25.348473 -4.109117 1.2803645 9
25.898251 -3.9565456 1.4951622 13
25.433563 -3.9260459 1.2311182 40
26.368586 -3.8048139 1.2717261 2
25.589388 -3.7461183 1.1500536 43
26.238214 -3.5928478 1.3265891 0
25.834723 -3.5711224 1.0292122 37
26.347479 -3.4151561 0.78427225 18
