# .PCD v0.7 - Point Cloud Data file format
VERSION 0.7
FIELDS x y z intensity
SIZE 4 4 4 4
TYPE F F F F
COUNT 1 1 1 1
WIDTH 126
HEIGHT 1
VIEWPOINT 0 0 0 1 0 0 0
POINTS 126
DATA ascii
26.748343 -7.2362356 0.87211001 11
26.552069 -6.9963617 0.92574698 55
26.428015 -6.774816 0.94924718 63
27.345922 -7.1706576 1.08005 2
27.350143 -6.9818869 1.0412806 20
27.195408 -6.7458181 1.0768365 30
26.314695 -6.5560684 0.97099417 56
27.12133 -6.534256 1.0769936 25
26.160318 -6.3274174 1.0137501 24
26.553082 -6.1961036 1.3099434 13
26.105318 -6.1230474 1.0120709 62
26.050869 -6.1518397 0.64096916 58
25.981543 -6.0295806 0.84526467 60
27.895407 -6.2977152 1.1908636 0
25.949198 -5.9369063 0.55528903 49
25.932295 -5.9298415 0.6134128 57
25.964626 -5.9196448 1.0214624 63
25.99287 -5.90347 1.0418519 64
26.233294 -5.9247417 1.4308156 18
26.027336 -5.8281608 1.1593857 14
25.875145 -5.8056803 0.80933636 58
26.150503 -5.7136345 1.4456637 13
25.894344 -5.6890063 1.0680282 61
25.849134 -5.720881 0.58495671 54
25.836765 -5.6803069 0.9972353 67
27.829752 -6.0824933 1.1939551 1
26.08637 -5.6193485 1.461713 13
26.746012 -5.6310296 1.6519451 1
25.80715 -5.6857677 0.58740383 55
26.793673 -5.4463654 1.6101031 12
25.860811 -5.5690923 1.1533958 26
25.758287 -5.5526671 0.78212047 64
26.056559 -5.5010839 1.4675545 14
25.806938 -5.4781337 1.0892545 61
25.749531 -5.505827 0.61554658 57
26.759558 -5.416656 1.6539484 11
25.705776 -5.4162822 0.97776771 71
25.677776 -5.4152489 0.56746203 51
25.767151 -5.4296942 1.3639276 0
26.038155 -5.4919529 1.6501031 21
26.355955 -5.4481702 1.6688952 17
25.90761 -5.3406167 1.4618715 4
25.726048 -5.2976685 1.1338243 46
25.966413 -5.288867 1.4915541 20
25.721008 -5.2681999 1.115271 56
25.647461 -5.2905812 0.65298277 61
25.619713 -5.2710733 0.76863533 64
25.99197 -5.2369142 1.5878285 32
25.730955 -5.1704059 1.2990036 1
26.191463 -5.15378 1.6600286 11
26.43919 -5.1718793 1.7503721 19
26.577448 -5.2522755 1.8988124 1
25.888386 -5.0790439 1.5113674 23
26.466354 -5.0852094 1.7012308 20
25.566574 -5.1305909 0.96131396 69
25.635815 -5.0570807 1.141085 50
25.528137 -5.1159263 0.56293643 48
25.549221 -5.0735173 0.69043493 61
25.573303 -4.9978132 1.1259733 58
26.51399 -4.9915628 1.7035291 19
26.704285 -5.0015922 1.7592268 17
26.564453 -5.1246753 2.0645416 1
26.753525 -4.8421688 1.5858876 2
26.972765 -4.9223042 1.8051245 2
26.449455 -4.7905984 1.6227078 1
25.831823 -4.9324579 1.5798117 24
25.790691 -4.8647351 1.5445645 23
25.477324 -4.9699116 0.75702983 62
25.577635 -4.8654685 1.2891964 4
25.554474 -4.8453064 1.17002 45
25.424187 -4.8534403 0.74108046 58
25.415876 -4.8191295 0.95490223 77
25.935005 -4.823246 1.6935601 3
26.837421 -4.7267313 1.6115998 4
25.624994 -4.7394762 1.4298327 2
25.415541 -4.6786079 1.119283 87
25.316366 -4.6434703 0.75628901 28
25.313841 -4.6384568 0.79102379 44
25.478386 -4.6385574 1.1986521 57
25.7118 -4.6564627 1.5718516 47
25.664669 -4.6110377 1.5714288 47
25.456362 -4.5460191 1.2646821 87
26.733692 -4.6376896 1.5853378 3
25.811451 -4.4989462 1.6644367 3
25.655737 -4.4522209 1.5900935 31
25.24481 -4.4845901 0.95467615 78
25.404291 -4.42942 1.2288119 85
25.198452 -4.4205871 0.84432966 54
26.680185 -4.4267483 1.6028564 3
27.148188 -4.8182688 1.8917321 4
25.848499 -4.3638773 1.8056343 10
26.658636 -4.3697896 1.6008149 4
25.460381 -4.4052711 1.4217174 33
25.257412 -4.3421431 1.1135877 81
25.659067 -4.258028 1.5845929 25
25.532658 -4.2744737 1.5485581 36
26.584848 -4.2092357 1.64368 5
25.327379 -4.2220736 1.2628248 40
25.300522 -4.2016983 1.2541903 19
25.727764 -4.1633782 1.6154824 23
25.135544 -4.2152209 0.87365788 84
26.086781 -4.0781302 1.608686 27
25.659632 -4.0646405 1.5839589 48
26.382612 -3.9763582 1.7330457 26
25.294048 -4.0520606 1.4149379 1
26.355997 -3.9706283 1.6448653 21
25.461176 -3.9299359 1.4932365 21
25.257006 -4.0164018 1.2961732 15
25.666969 -3.8717549 1.5805216 55
25.083822 -4.0136204 0.90215516 84
25.678255 -3.8166316 1.5450873 40
25.293604 -3.8311944 1.281 12
25.81336 -3.7003043 1.5170718 16
25.967762 -3.7083158 1.5666454 39
25.092072 -3.8226767 0.90056127 84
25.362719 -3.6467631 1.2521511 39
25.200733 -3.644438 0.85210329 63
26.237717 -3.5951524 1.594317 20
26.411428 -3.5969064 1.2449342 3
26.374725 -3.3890235 1.2715151 1
25.530737 -3.4795589 1.1789373 52
25.430162 -3.4865026 0.74737883 52
25.773706 -3.3177135 1.0727041 18
25.720034 -3.3319602 0.61238474 150
26.131584 -3.1693728 0.91375023 17
26.44335 -3.195931 1.2520319 0
