# .PCD v0.7 - Point Cloud Data file format
VERSION 0.7
FIELDS x y z intensity
SIZE 4 4 4 4
TYPE F F F F
COUNT 1 1 1 1
WIDTH 81
HEIGHT 1
VIEWPOINT 0 0 0 1 0 0 0
POINTS 81
DATA ascii
26.168951 -3.4068997 1.34217 2
26.204487 -3.4454224 1.3404096 2
26.302608 -3.6094317 1.1299542 0
25.933168 -3.2111607 1.2214355 43
26.496336 -3.3398705 1.3686029 3
26.264812 -3.1023817 1.2267803 1
26.174883 -3.6303139 1.5987641 23
25.851501 -3.5567956 1.4926335 17
26.325012 -3.5083022 1.6928707 0
25.833506 -3.7174752 1.5906279 44
25.625925 -3.3184538 1.2055591 48
26.330246 -3.8191993 1.7611707 9
26.32876 -3.8342824 1.7709837 5
26.228943 -3.9548836 1.6523204 18
25.675892 -3.7272654 1.5782163 47
25.921883 -4.0361276 1.6268839 37
25.678688 -3.9243109 1.5842227 43
25.536118 -3.8070064 1.56686 52
25.393173 -3.4301038 1.1557412 46
26.526838 -4.0526261 1.6815838 6
25.703259 -4.1226368 1.5835049 23
25.650099 -4.1206436 1.5881026 35
26.616354 -4.1880708 1.7191825 0
25.335211 -3.9080746 1.4982828 46
26.501497 -4.3006458 1.6023264 4
25.229658 -3.7260253 1.3104856 7
25.203554 -3.5461168 1.0853618 32
26.604012 -4.2675467 1.6579219 4
25.789619 -4.2987542 1.7556055 2
25.589621 -4.2975926 1.6477287 14
25.427963 -4.2100329 1.5249913 58
25.230486 -4.0216713 1.3829161 1
25.106876 -3.8418043 1.2050321 51
25.641445 -4.3946662 1.6587096 11
25.063585 -3.6670046 0.99065202 76
25.218134 -4.150784 1.2238494 44
25.366606 -4.3268228 1.3869251 60
26.709604 -4.4883685 1.6247996 4
25.666334 -4.5066218 1.6272423 20
25.086023 -3.973959 1.0513142 38
25.564907 -4.5026278 1.5266155 56
26.234375 -4.6486483 1.6212789 1
26.795883 -4.5081377 1.7109108 1
25.362316 -4.4497724 1.2194955 85
24.98432 -3.7961721 0.86254174 91
26.701002 -4.6159635 1.5815504 3
25.176849 -4.2740073 1.0723093 85
25.767326 -4.6744571 1.6651962 11
25.506092 -4.6115522 1.3847202 3
25.054041 -4.1013646 0.89944118 88
25.765635 -4.7208438 1.5998499 21
25.708588 -4.7753239 1.5263189 20
24.968901 -3.9320023 0.70226377 83
25.315464 -4.5640445 1.0703754 86
25.16197 -4.3994389 0.91077268 74
26.831062 -4.7128978 1.5885868 8
25.496895 -4.7274981 1.2205873 14
26.560942 -4.8596015 1.7287018 17
25.285368 -4.5488658 0.67601186 16
25.044714 -4.2345834 0.73237813 20
25.834541 -4.927794 1.5875937 39
25.317726 -4.6853542 0.89708185 70
25.451096 -4.8313575 1.0721427 74
26.360769 -5.0148339 1.8381683 14
25.618961 -4.9794917 1.2278514 9
25.92284 -5.1376238 1.5702828 40
25.460243 -4.9478874 0.89287376 66
25.565105 -5.0730472 1.0855688 65
25.365828 -4.8145223 0.70254713 60
26.005535 -5.3488827 1.5585858 23
25.567396 -5.1790547 0.91317916 65
25.511084 -5.0701652 0.69446427 63
26.875847 -5.3182888 1.6364725 6
25.623178 -5.2930341 0.71237636 63
26.114044 -5.5655017 1.5360378 22
25.645578 -5.398407 0.52851683 42
26.214058 -5.7802424 1.5229363 16
27.312199 -6.2391391 1.0561185 18
27.327045 -6.441987 1.0869275 28
27.473177 -6.675137 1.0608637 21
27.554169 -6.8906617 1.0672206 3
