# .PCD v0.7 - Point Cloud Data file format
VERSION 0.7
FIELDS x y z intensity
SIZE 4 4 4 4
TYPE F F F F
COUNT 1 1 1 1
WIDTH 108
HEIGHT 1
VIEWPOINT 0 0 0 1 0 0 0
POINTS 108
DATA ascii
26.355171 -6.4304543 0.57597947 6
26.352066 -6.5265665 0.70520598 24
26.212925 -6.3053365 0.7386964 18
26.180294 -6.1990457 0.56803328 5
26.188293 -6.2873712 0.8265686 48
26.624748 -6.7840962 0.60934627 15
26.094397 -6.0873475 0.76683754 50
26.219236 -6.1897273 0.97638512 60
26.066235 -6.0591569 0.79451042 59
26.631849 -6.3606849 1.0546986 34
26.334494 -6.1060181 1.0908905 47
25.990162 -5.9398522 0.57198054 48
26.471275 -6.1324983 1.0978404 38
26.806446 -6.5937061 1.0079526 25
26.068399 -5.9451699 0.95887697 51
26.009932 -5.8772798 0.77997047 60
26.703699 -6.0786581 1.0859504 23
25.952164 -5.8094854 0.76007837 62
26.300217 -5.9028807 1.1468081 17
25.855967 -5.6716037 0.54670399 49
26.00703 -5.8124223 1.1571907 27
25.886099 -5.6576834 0.81361318 58
27.033836 -6.0376368 1.102421 25
25.891018 -5.6724262 0.95517385 65
26.089228 -5.7111588 1.2832148 17
26.419851 -5.6605272 1.2942624 16
26.04785 -5.6548767 1.23851 16
25.789383 -5.526855 0.7482928 59
25.917814 -5.5533233 1.1088959 24
25.761183 -5.4396663 0.85376227 58
25.680838 -5.3716965 0.54412717 47
27.428047 -6.0033507 1.0939491 20
27.315371 -5.7242312 1.0515296 17
25.712236 -5.3804994 0.95158964 64
27.512426 -6.1385584 1.1046653 6
27.496817 -5.93471 1.0833266 21
27.451618 -5.7239652 1.0768743 24
25.620663 -5.2202597 0.74395013 61
25.73073 -5.2500896 1.1083668 36
25.639791 -5.2229028 0.89404023 58
25.943371 -5.3023195 1.42247 12
26.176416 -5.0620227 1.226029 0
26.000326 -5.1806788 1.5599998 26
25.532867 -5.0642419 0.95197171 71
25.522612 -5.007175 0.93322909 68
26.232939 -5.0842991 1.5836796 20
26.243206 -5.093452 1.6100601 19
27.46154 -5.52633 1.0499732 22
27.556715 -5.6419215 1.1113607 11
27.736542 -5.9455314 1.1282655 2
25.541628 -4.9249301 1.1122125 52
25.436821 -4.8898144 0.74841714 60
26.510225 -5.0054297 1.6517273 5
25.416439 -4.7950039 0.9706201 65
25.557384 -4.7848091 1.2675107 2
25.755844 -4.8424234 1.5833265 27
25.983658 -4.8430333 1.6808665 14
25.547609 -4.7879438 1.3962258 0
25.361 -4.7287021 0.95013809 67
25.795822 -4.6386871 1.2662735 0
25.79369 -4.7078834 1.7246523 23
25.30895 -4.5812879 1.0124702 66
25.344133 -4.5782599 1.1200379 55
25.903355 -4.6323948 1.7022078 16
26.105318 -4.6198072 1.7422451 15
26.103582 -4.4748597 1.5991726 3
25.592512 -4.5011587 1.5667813 24
26.256849 -4.4998403 1.8302444 22
25.355627 -4.4337888 1.2712262 3
25.216173 -4.3721905 1.0494983 71
25.697302 -4.3742785 1.6731204 8
26.258181 -4.4813728 2.0126238 1
26.085966 -4.2892256 1.649925 1
25.994673 -4.2604117 1.6403496 1
26.599585 -4.411149 1.8334895 4
26.7026 -4.3576746 1.8099728 1
26.599649 -4.2203145 1.5745983 9
25.335819 -4.1732564 1.4662921 2
25.113134 -4.1647844 1.0944003 76
25.382357 -4.1396403 1.5684204 48
25.993441 -4.0622773 1.6359992 5
25.500214 -4.0082388 1.6640455 3
25.26265 -3.9695988 1.4961938 67
25.033279 -3.9578001 1.1301442 79
26.59693 -4.063766 1.7272772 0
26.808325 -4.1749091 1.7582049 19
25.628349 -3.8741572 1.7528101 2
26.29525 -3.8138442 1.6023674 4
25.930849 -3.6577332 1.6604942 3
25.198208 -3.7638814 1.5248199 60
25.565487 -3.8006516 1.8272123 5
24.952982 -3.7510171 1.168072 79
26.318426 -3.6578448 1.7400094 0
25.142174 -3.563374 1.5523498 61
24.889978 -3.550333 1.2015566 49
25.99465 -3.4682591 1.6330442 19
25.1672 -3.372402 1.5443265 53
24.862972 -3.3529909 1.2194672 50
26.023962 -3.2732148 1.6248791 14
25.349106 -3.2026474 1.4634964 7
24.94215 -3.1710551 1.1870593 57
26.013401 -3.0739546 1.6384617 6
26.153307 -3.1036153 1.0926214 0
25.090979 -2.9943154 1.1240937 36
25.896967 -2.8738263 1.2248862 2
25.303093 -2.8253372 1.0322703 19
25.912453 -2.6776164 1.233762 21
25.605227 -2.6595204 0.90039992 20
