# .PCD v0.7 - Point Cloud Data file format
VERSION 0.7
FIELDS x y z intensity
SIZE 4 4 4 4
TYPE F F F F
COUNT 1 1 1 1
WIDTH 71
HEIGHT 1
VIEWPOINT 0 0 0 1 0 0 0
POINTS 71
DATA ascii
24.701387 -3.5940402 0.72456247 61
24.71339 -3.6031449 0.64918387 17
24.666754 -3.4128823 0.70014691 88
24.71456 -3.5045376 0.89666909 86
24.657343 -3.3957384 0.7044434 83
24.665466 -3.2962031 0.87876719 91
24.886421 -3.8187554 0.53449416 4
24.802296 -3.578934 1.0752741 88
24.663836 -3.2260289 0.73248404 100
24.748495 -3.4137518 1.0560899 35
24.876268 -3.7778654 1.0152119 88
24.661606 -3.1789241 0.65903187 75
24.749304 -3.3881116 1.1268568 42
24.729612 -3.2008564 1.0240217 58
24.963343 -3.9787006 0.95071465 77
24.762699 -3.0834951 0.78738409 78
24.749199 -3.0465736 0.72218817 77
24.794832 -3.3229337 1.2101986 46
24.761753 -3.2044711 1.1500497 57
24.841373 -3.1097863 1.1444757 51
24.852125 -2.9837582 0.91976386 66
24.802298 -2.9590678 0.54170996 14
25.075672 -4.1814175 0.87550282 68
24.843777 -3.028867 1.1396471 49
24.864502 -3.2332947 1.3509855 2
24.899485 -2.8743274 0.68156856 64
24.95536 -2.8587272 0.64606631 52
24.98592 -2.8860531 1.0291959 46
24.977877 -3.0206246 1.2522805 22
25.006001 -2.8577778 1.0948865 38
25.12426 -3.1632881 1.4009672 0
25.195023 -4.3876123 0.79953468 65
25.148951 -2.7611568 0.7243517 68
25.166466 -2.7898941 1.1171157 39
25.152962 -2.9309349 1.3417175 3
25.189358 -2.7179499 0.5715732 150
25.2187 -2.6914411 1.0276841 29
25.312603 -3.0815818 1.4849764 10
25.350126 -2.6597807 0.80266953 43
25.326832 -4.5970898 0.72345275 64
25.3965 -2.6975527 1.1797372 53
25.550974 -3.002682 1.5466348 33
25.558292 -2.5575845 0.87604553 24
25.519056 -2.5307474 0.92109168 36
25.44277 -4.8033767 0.65458047 64
25.928061 -2.9020598 1.1489156 1
25.697838 -2.6067064 1.2092553 53
25.814192 -2.7727334 1.3795543 6
25.813944 -2.9217577 1.5987283 22
25.550343 -5.0109186 0.59308368 58
25.99061 -3.2841604 1.8282803 10
25.934652 -2.4661543 0.86835843 0
26.276091 -3.5188868 1.7113128 1
26.383104 -3.7318377 1.6748434 3
26.187372 -4.2983799 1.815408 34
26.200954 -4.4942656 1.8310586 5
26.403168 -4.1341043 1.6978055 13
26.573311 -3.9599855 1.6054506 12
26.600351 -4.7576051 1.6805456 0
26.446072 -6.0789485 1.0752041 39
26.325773 -6.2067518 0.97298992 54
26.714064 -5.9794812 1.107125 28
26.33939 -6.3633552 0.80822694 46
27.082439 -5.8999367 1.0944533 26
26.461891 -6.5425634 0.58841252 38
26.789368 -6.4720287 1.026931 25
26.813484 -6.6269107 0.85526258 4
27.046368 -6.3817453 1.0690889 13
27.434586 -5.8091636 1.0910416 18
27.342838 -6.2948289 1.0926956 3
27.695316 -5.694231 1.1298211 3
