# .PCD v0.7 - Point Cloud Data file format
VERSION 0.7
FIELDS x y z intensity
SIZE 4 4 4 4
TYPE F F F F
COUNT 1 1 1 1
WIDTH 100
HEIGHT 1
VIEWPOINT 0 0 0 1 0 0 0
POINTS 100
DATA ascii
25.060762 -4.0990658 0.73229939 59
25.060888 -4.0556231 0.94273049 67
24.991121 -3.9898047 0.94381571 65
25.193888 -4.2667809 0.85930407 63
24.89385 -3.8703871 0.76654422 55
24.912594 -3.8781207 0.55806708 43
24.935766 -3.8466704 1.0220461 73
24.988571 -3.8890839 1.1213125 61
25.331118 -4.4801984 0.77789497 57
24.839327 -3.7555375 0.97197998 64
24.847887 -3.6785908 0.61339104 16
24.713581 -3.6174245 0.81128472 47
25.039978 -3.7979426 1.2703055 4
24.842148 -3.6437674 1.0911078 77
25.318785 -4.2541909 1.2751319 1
24.864128 -3.6533265 1.1340325 61
25.475384 -4.4713435 1.1876549 8
25.473423 -4.6976285 0.69622827 56
24.67362 -3.4863365 0.60442758 5
24.68568 -3.5022759 1.0014796 79
24.617924 -3.4552882 0.75722563 17
25.183638 -3.6661484 1.3906235 0
24.904898 -3.5494351 1.2898225 50
25.051689 -3.6957836 1.4388866 1
24.760574 -3.4451487 1.1539571 81
25.586411 -4.6811056 1.126506 18
24.716272 -3.3925059 1.1598773 83
24.536058 -3.3473535 0.85307497 67
25.126804 -3.6010542 1.5764714 41
24.924868 -3.4432015 1.4531004 68
25.628286 -4.919323 0.61028385 54
24.979956 -3.4504333 1.5111136 66
24.50416 -3.2503808 0.84394681 80
24.542032 -3.2311828 1.0240551 81
24.671709 -3.2423348 1.2248782 81
25.685555 -4.8906946 1.0726027 46
24.710794 -3.2759659 1.3359201 77
24.436762 -3.1977618 0.67811006 43
25.281368 -3.516006 1.6737121 2
24.994457 -3.3413417 1.5879281 28
24.568064 -3.1152301 1.1825526 54
24.924814 -3.2517035 1.5618737 46
24.426163 -3.0722868 0.85850751 87
25.707758 -5.0838833 1.0583208 44
24.762291 -3.1681726 1.4795597 46
24.437012 -3.0518422 0.90922385 88
24.624767 -3.0481279 1.2787056 11
25.797012 -3.4817355 1.606638 1
25.064219 -3.235539 1.7268078 20
24.59523 -2.998877 1.3376489 7
24.431753 -2.9498649 1.0253929 38
24.900148 -3.0675607 1.5830907 41
24.933514 -3.0656683 1.5867441 39
24.336025 -2.9101744 0.67688811 88
25.213974 -2.9885273 1.6004555 53
24.327553 -2.8827112 0.53205061 24
24.378933 -2.8574338 0.97319984 86
25.248337 -3.145426 1.8079932 5
24.588062 -2.8566632 1.3288462 1
24.693785 -2.8880389 1.4575709 18
24.470261 -2.8287838 1.1754055 63
24.385904 -2.7855284 0.82492298 88
24.995182 -2.8845086 1.5874584 54
24.878819 -2.7873287 1.5353135 49
24.618603 -2.7183747 1.2709298 15
25.534073 -2.9040654 1.6181931 21
26.162092 -3.4187434 1.6117755 3
24.438471 -2.6800244 0.97864395 82
25.948681 -5.3225312 0.94277781 52
26.006649 -3.1253622 1.6289525 4
25.06572 -2.7064998 1.5869173 57
24.631254 -2.6779969 1.3416563 0
24.460861 -2.6649377 0.95609868 82
25.132082 -2.6888535 1.5807469 51
24.378046 -2.7023354 0.54190016 20
24.596874 -2.5490901 1.0537621 38
24.551722 -2.5062973 0.95972598 80
24.760641 -2.5045505 1.3154174 3
24.759331 -2.433131 1.1393361 47
25.196562 -2.5328202 1.5623639 44
25.688229 -2.7964797 1.7132564 23
25.464891 -2.598088 1.5878617 38
26.058208 -5.5330687 0.89133137 63
26.151997 -3.2991564 1.7889975 0
24.737198 -2.3349209 0.90745652 59
24.926744 -2.3327487 1.2744143 18
24.950338 -2.3154566 1.2101836 49
26.193314 -5.7531023 0.83225232 50
24.990471 -2.173044 0.823057 46
25.613453 -2.4332359 1.2858466 3
25.410543 -2.3640275 1.4995537 19
25.614157 -2.480396 1.6851411 2
25.206215 -2.2028298 1.2496282 19
25.149822 -2.1659374 1.2082111 55
25.586958 -2.2916286 1.4640483 4
26.414499 -5.9916987 0.73427862 21
25.745951 -2.2066329 1.3854296 3
25.536928 -2.0909328 1.2550176 10
25.304598 -2.0111778 0.71239376 56
25.484297 -2.0066082 1.0922437 9
