# .PCD v0.7 - Point Cloud Data file format
VERSION 0.7
FIELDS x y z intensity
SIZE 4 4 4 4
TYPE F F F F
COUNT 1 1 1 1
WIDTH 97
HEIGHT 1
VIEWPOINT 0 0 0 1 0 0 0
POINTS 97
DATA ascii
24.33326 -2.4711235 0.54184687 18
24.255766 -2.6416228 0.53605604 19
24.47806 -3.1234062 1.0785068 76
24.510792 -2.9918983 1.2256501 34
24.488394 -3.2596223 0.90567046 69
24.458971 -2.8460715 1.4144083 1
24.674126 -3.4206283 0.64068228 10
24.617855 -2.7257764 1.495577 42
24.846233 -2.5121143 1.5286077 36
24.729607 -2.6904593 1.5724252 59
24.704035 -3.3190734 1.1961782 83
24.811546 -2.6083922 1.5614667 54
24.67557 -3.4442225 1.0426812 82
24.691561 -3.1833065 1.3685449 69
24.723787 -2.8809369 1.5635974 44
24.738161 -3.0575664 1.5069524 44
24.719955 -3.5812311 0.84957212 61
25.224525 -2.3576829 1.3628166 1
24.79409 -3.0798256 1.5225343 39
24.904974 -2.9427559 1.5892082 39
25.085289 -2.4950461 1.5857757 47
24.806894 -3.7251189 0.63092822 51
24.865025 -3.283793 1.4834278 59
25.468374 -2.1847794 1.2661233 2
25.39978 -1.9830463 1.3201478 0
25.187998 -2.8387749 1.6163566 45
24.886095 -3.6292648 1.1673832 41
24.915766 -3.3764539 1.4897542 63
24.87639 -3.7508426 1.0037696 68
24.969568 -3.2552435 1.6273597 19
25.406019 -2.3837359 1.5895394 23
25.484886 -2.7325056 1.6377858 18
25.22846 -3.1572993 1.6701931 1
24.947178 -3.8864625 0.79546529 62
25.545355 -2.7742682 1.6534234 13
25.39381 -3.044878 1.7528569 1
25.526669 -2.2470675 1.688809 0
25.610569 -2.5837798 1.6343021 19
25.142117 -3.5670033 1.60934 30
25.609589 -2.3869667 1.6510433 4
25.588614 -2.6021059 1.7477534 19
25.571674 -2.9724255 1.631099 2
25.119184 -3.68574 1.4543263 3
25.063812 -3.7999432 1.312921 0
25.054153 -3.9183846 1.1482279 44
25.022182 -4.0210094 0.58397979 52
25.05592 -4.0359836 0.97536629 67
25.331684 -3.466537 1.6888963 1
25.141443 -4.1689196 0.75697488 62
25.577765 -3.1684868 1.6223162 0
25.522001 -3.3600984 1.6441439 1
25.261444 -3.9678082 1.4480486 1
25.236118 -4.1897278 1.1211059 44
25.2838 -4.0866838 1.2677442 0
25.207256 -4.2954416 0.54987472 46
25.223768 -4.2994208 0.95392072 65
25.32535 -3.8608527 1.5872983 35
25.51791 -3.5536387 1.6431671 1
25.482679 -3.741606 1.6616497 6
25.538691 -3.7751353 1.655622 11
25.405521 -3.9223092 1.7003309 49
25.956612 -2.9782782 1.6586039 3
25.854492 -3.411659 1.613507 1
25.311817 -4.4246397 0.7358194 55
25.436531 -4.2347879 1.4268146 0
25.473703 -4.1312037 1.5782659 25
25.449677 -4.3398991 1.2156941 1
25.527916 -4.0285983 1.7211331 24
25.410742 -4.443388 1.0977823 46
25.409506 -4.5473289 0.9255594 58
25.517517 -4.3558335 1.2177516 0
25.477903 -4.6608462 0.71557534 53
25.477095 -4.1287589 1.6734895 19
25.777531 -3.6894126 1.7121065 36
25.984985 -3.5959783 1.7849895 19
25.973991 -3.6073096 1.9099689 5
25.584627 -4.5587921 1.1610289 7
25.715158 -4.3628883 1.5744295 23
25.955715 -3.7459788 2.0278909 2
26.001717 -3.8057687 1.9007185 0
25.988134 -3.8698895 1.8491431 2
26.245667 -3.3343396 1.6012688 19
26.275774 -3.4517322 1.776592 4
26.09271 -4.0058708 1.632 14
25.713596 -4.7762384 1.1130817 16
26.304342 -3.5126629 1.8111225 2
26.390371 -3.2654161 1.7280532 13
25.620674 -4.951169 1.1734002 22
25.987167 -4.6062298 1.4593486 11
26.447298 -4.1139078 0.72061646 0
25.984129 -5.2186546 1.0181075 52
26.132936 -5.4450216 0.96920007 53
26.313881 -5.6790667 0.90679592 18
26.82267 -4.9629273 1.0905126 23
26.819744 -5.1622419 1.108934 31
26.943096 -5.3876281 1.0728796 25
26.995031 -5.5976009 1.0729241 9
