# .PCD v0.7 - Point Cloud Data file format
VERSION 0.7
FIELDS x y z intensity
SIZE 4 4 4 4
TYPE F F F F
COUNT 1 1 1 1
WIDTH 115
HEIGHT 1
VIEWPOINT 0 0 0 1 0 0 0
POINTS 115
DATA ascii
24.714943 -1.6181737 0.63826877 76
24.90132 -1.5414141 0.72959042 48
24.613625 -1.6500782 0.85974222 41
24.961519 -1.4692838 0.72059971 54
25.172596 -1.4643171 0.78220272 7
24.373482 -1.8310537 0.94491816 57
24.795 -1.6416543 1.2308775 45
25.06069 -1.4598093 1.1379801 3
24.588047 -1.8244417 1.2981222 8
24.209394 -2.0142221 0.99581283 60
24.481197 -2.0086765 1.31756 0
24.096073 -2.1974707 1.0241523 55
24.397596 -2.1947448 1.3299323 0
25.034302 -1.8312918 1.5384123 36
25.329708 -1.6483203 1.4335994 1
24.889584 -2.0150001 1.5770267 45
24.037439 -2.3785896 1.0268019 58
24.794271 -2.2012372 1.5934949 50
24.086033 -2.5683699 0.97683567 65
24.166777 -2.3682148 1.4176807 0
24.7521 -2.3889713 1.586818 50
24.27903 -2.560591 1.3387445 1
24.166531 -2.7635694 0.91245168 78
24.713236 -2.5739193 1.5833545 37
24.331945 -2.7514482 1.291809 81
24.274708 -2.9603233 0.83777571 45
25.30724 -2.2173412 1.8093317 19
24.473392 -2.9511755 1.2023077 82
24.630383 -2.7559783 1.6026808 40
25.600904 -2.4275475 1.6493069 5
24.69347 -2.9493103 1.555209 52
24.564831 -3.1487854 1.1402887 73
24.462515 -3.1663296 0.72286838 19
24.816145 -3.1506021 1.4820139 11
25.701263 -2.6287229 1.5809017 6
24.671797 -3.3493218 1.0732453 76
25.597445 -2.8156693 1.6089089 0
24.629177 -3.3754437 0.62181914 48
25.535809 -3.0042181 1.6207684 1
25.217482 -3.1724763 1.6588898 1
25.597673 -3.0558834 1.6346717 1
25.000275 -3.296679 1.6117777 25
26.000528 -2.9380317 1.6003746 14
25.527657 -3.1983666 1.6105179 1
24.977232 -3.4398916 1.4699371 4
25.390631 -3.3775811 1.662534 11
24.799223 -3.5524631 0.99988389 69
26.198318 -2.8490477 1.8032018 14
25.677362 -3.2602 1.8467019 38
25.496424 -3.3893685 1.7778262 23
25.712223 -3.1999102 1.9913697 0
25.327787 -3.5149994 1.7025591 18
25.225504 -3.552495 1.730064 19
25.208738 -3.6419754 1.6030056 36
24.940313 -3.76003 0.92098325 63
25.000273 -3.7299814 1.1445131 38
26.003128 -3.1427553 1.8521801 2
26.137451 -3.0404949 1.8149246 1
25.142361 -3.7567081 1.296132 0
25.308844 -3.7531164 1.686763 24
25.007648 -3.8712859 0.97815132 60
25.095989 -3.9707804 0.8373068 55
25.277458 -3.9281704 1.2521341 0
25.108236 -4.02215 0.76595175 52
25.245829 -3.9597826 1.2414287 3
25.231861 -4.0618625 1.1118432 45
25.488791 -3.9821167 1.5547616 20
25.534973 -3.9711049 1.5786498 24
25.491657 -4.1176057 1.3935859 2
25.266069 -4.2016506 0.93120831 60
25.42391 -4.1737843 1.1540419 11
25.276119 -4.185061 0.74525774 55
25.965834 -3.7631032 1.6539921 6
25.76063 -3.8781366 1.5890782 22
25.384583 -4.3523664 0.70605689 54
25.604383 -4.2651272 1.1781461 1
25.758377 -4.1910267 1.4743901 12
25.483753 -4.3796692 1.0694368 44
25.528719 -4.3798885 1.1052549 19
26.262829 -3.6864798 0.76333624 1
26.21286 -3.7190666 0.71505409 0
25.445545 -4.4013977 0.65914702 55
25.51618 -4.5136843 0.88810867 56
25.485132 -4.5622759 1.1308799 20
25.78599 -4.4389696 1.333974 16
25.612726 -4.5386014 1.2521241 26
25.60919 -4.6165133 0.58072197 59
25.622562 -4.6563454 0.66595137 61
25.723598 -4.6801715 1.0318718 44
25.820761 -4.8040838 0.97505111 55
25.755867 -4.8079171 0.8483839 56
26.091122 -4.8652768 1.1021929 45
25.957434 -4.9616122 0.9954682 57
25.825325 -4.9403701 0.6428827 11
25.960272 -5.0203114 0.917422 59
25.934189 -5.0730705 0.83749348 44
26.58499 -4.4178987 1.1270113 24
26.608944 -4.500607 1.0832481 19
26.449181 -4.798182 1.104455 29
26.565016 -4.6902909 1.1080843 27
27.036263 -4.3430429 1.0892674 27
27.250866 -4.2310901 1.1621311 5
26.816072 -4.7285566 1.1022899 28
26.346601 -5.1386356 1.0589309 41
26.185078 -5.2231989 0.96438956 48
26.626934 -4.8955731 1.0880502 30
26.15453 -5.2469707 0.83745474 45
26.186966 -5.3314853 0.79151481 41
26.285894 -5.451436 0.5728851 19
26.660343 -5.0759482 1.0831954 27
26.702089 -5.105494 1.0646596 22
26.693033 -5.3001752 1.0825677 3
27.158073 -4.6487112 1.1177727 11
27.389561 -4.5506063 1.1834245 0
27.005905 -5.0125861 1.0950003 10
