# .PCD v0.7 - Point Cloud Data file format
VERSION 0.7
FIELDS x y z intensity
SIZE 4 4 4 4
TYPE F F F F
COUNT 1 1 1 1
WIDTH 95
HEIGHT 1
VIEWPOINT 0 0 0 1 0 0 0
POINTS 95
DATA ascii
24.784483 -3.6837113 0.56192493 45
24.762117 -3.6006413 0.67562395 62
24.900715 -3.8114014 0.57805049 54
24.732264 -3.5826855 0.77012247 58
24.651981 -3.4725499 0.59070438 49
24.625797 -3.393564 0.77469957 61
24.575054 -3.3608923 0.81045073 58
24.675346 -3.4805622 0.97747439 64
24.913172 -3.7764897 1.047947 71
24.462107 -3.2327831 0.64666975 17
25.027439 -3.9840348 0.96912259 71
24.818165 -3.5747488 1.1186782 62
24.705505 -3.3897724 1.1404161 49
24.53179 -3.2544677 1.0090222 64
24.470892 -3.1837926 0.88585186 66
24.74555 -3.3771842 1.182548 34
25.178934 -4.1983061 0.87337095 60
24.385948 -3.11779 0.86411959 57
24.756666 -3.2990878 1.2906256 1
24.558908 -3.1550987 1.1716567 45
24.675644 -3.1831088 1.2457372 7
24.287632 -2.9792635 0.69642109 11
24.382292 -3.0082588 1.0429941 60
24.354864 -2.9803374 0.97861087 60
25.34321 -4.4168959 0.77430934 57
24.577154 -3.0546818 1.3376381 6
24.760336 -3.2010353 1.4635426 3
24.221977 -2.8125701 0.62020773 4
24.21944 -2.8563101 0.91068423 79
24.564688 -2.9803784 1.3330402 62
24.414736 -2.9025385 1.2031446 81
24.251989 -2.7841401 1.0669559 83
24.6248 -2.9544511 1.4866179 65
25.490372 -4.632566 0.68900847 63
24.827658 -3.108561 1.604338 35
24.227289 -2.7429056 1.0803112 80
24.096792 -2.7030239 0.75543469 61
24.396866 -2.7900803 1.3867493 56
24.461788 -2.7830179 1.4182789 47
24.065962 -2.6076722 0.74306434 85
24.986292 -3.0275481 1.7006485 1
24.705816 -2.8566897 1.6196474 18
24.26841 -2.6339436 1.2319609 31
24.09087 -2.5827413 0.93481076 85
24.17835 -2.5894763 1.1445563 72
24.00024 -2.5446644 0.58710736 53
24.492382 -2.6897771 1.5087243 45
25.610575 -4.843317 0.61795998 16
24.437664 -2.5961037 1.4685097 13
25.473097 -2.9860058 1.6441846 1
24.880625 -2.7668169 1.7085481 1
24.326202 -2.5231738 1.3761307 5
24.687248 -2.6002219 1.5851423 31
24.001379 -2.4227152 0.76255506 87
24.086079 -2.4620607 1.1107868 39
24.010981 -2.4170434 0.81581366 88
25.261898 -2.7026539 1.7001985 1
24.134476 -2.4012518 1.20925 51
24.9436 -2.5117552 1.6330669 30
24.474184 -2.2614386 1.255595 0
24.172079 -2.3516963 1.2372373 33
24.387501 -2.4104083 1.5152309 57
24.382572 -2.4062817 1.5361273 71
24.015629 -2.29863 0.92938119 94
24.031513 -2.2343733 0.85128766 95
24.118675 -2.1823285 1.049253 45
24.167727 -2.2227228 1.2372954 43
24.117258 -2.060004 0.85425425 78
24.611687 -2.3159406 1.5746262 58
24.557951 -2.1414843 1.3856529 0
24.229122 -2.0661395 1.1609855 58
24.468063 -2.2319224 1.5381267 48
24.270496 -2.0494869 1.2316775 44
25.257172 -2.4263978 1.6546661 12
24.935619 -2.2259436 1.587272 48
25.694448 -2.6379499 1.6701488 3
25.96208 -2.9381297 1.5933007 11
24.646397 -2.0656612 1.4962463 14
24.416298 -1.9555408 1.2340683 34
24.726418 -2.0311496 1.4677724 7
24.282347 -1.8917677 0.81996107 63
24.415071 -1.8799651 1.2089458 56
25.329559 -2.3111165 1.7898078 12
25.22691 -2.1273675 1.6197636 20
24.503019 -1.7270538 0.76080853 56
24.602451 -1.8400555 1.3073791 4
24.985277 -1.9133928 1.3814414 4
24.958281 -1.9226472 1.5240055 33
24.58984 -1.7117667 1.1752204 60
25.094412 -1.7494825 1.2315826 1
25.152414 -1.8074344 1.5952313 14
24.73703 -1.562343 0.69609433 90
25.127096 -1.7376101 1.3655804 10
24.842587 -1.5479558 1.1045754 23
25.021431 -1.3963175 0.61094373 15
