# .PCD v0.7 - Point Cloud Data file format
VERSION 0.7
FIELDS x y z intensity
SIZE 4 4 4 4
TYPE F F F F
COUNT 1 1 1 1
WIDTH 67
HEIGHT 1
VIEWPOINT 0 0 0 1 0 0 0
POINTS 67
DATA ascii
25.748537 -4.8220673 0.92601126 11
25.86058 -4.7084818 1.0389521 29
25.587776 -4.7036476 0.92729187 16
25.460423 -4.7585731 0.64911675 16
25.391411 -4.6082778 0.85341287 50
26.1441 -4.623035 1.0722388 19
25.427614 -4.4816971 1.0005021 59
25.405533 -4.4739251 1.0123827 61
25.554487 -4.3592277 1.1053154 46
26.26236 -4.6010833 1.0896074 6
25.876793 -4.2700696 1.1160027 38
26.306541 -4.410213 1.0642644 22
25.209711 -4.4215355 0.69701159 10
25.30872 -4.2700634 1.0558102 60
26.403648 -4.5281181 1.1158119 4
25.157261 -4.2689872 0.88970906 65
26.248396 -4.2008557 1.0902697 29
26.23251 -4.1828384 1.1107386 30
25.153559 -4.2748332 0.64575601 9
25.151621 -4.1240592 1.0557837 53
26.214115 -3.9938996 1.1079937 29
25.185022 -4.0546379 1.1164619 33
26.102085 -3.8271272 1.0804083 15
25.021523 -4.0596418 0.71479481 64
26.577757 -4.0910234 1.1102211 16
26.261765 -3.8005314 1.0899826 29
25.213705 -3.8431993 1.3440448 12
25.013546 -3.8328021 1.2029717 3
24.908888 -3.8458197 0.77567351 56
26.460596 -3.7227437 1.0731617 20
25.14551 -3.6604247 1.1435256 0
26.359846 -3.6152353 1.0506091 14
26.790215 -3.9698699 1.1761212 2
26.570757 -3.5825627 1.1790215 6
25.419273 -3.3084681 1.0281721 0
24.753592 -3.6295435 0.86215371 58
24.614826 -3.4194334 0.94128746 59
25.227627 -3.263458 1.5925429 16
25.174696 -3.0646818 1.6286873 23
24.491293 -3.2108104 1.0164552 72
24.391783 -3.0075345 1.0812693 72
24.501028 -2.9977779 1.4908671 0
24.968706 -2.8477802 1.7408276 15
24.539108 -2.8154531 1.4868714 7
24.310707 -2.8089893 1.1392522 51
25.055954 -2.665709 1.7177689 44
25.247852 -2.4935944 1.647815 9
24.448713 -2.616205 1.5503855 35
24.231308 -2.6111677 1.1988748 17
25.451775 -2.3197215 1.5767603 7
24.378887 -2.4190733 1.6054443 41
24.16246 -2.4149747 1.25679 4
25.361544 -2.1155415 1.6453393 5
25.701298 -2.333739 1.9251498 0
24.33029 -2.2269814 1.6519108 12
24.04715 -2.2160654 1.3381982 83
25.263842 -1.9133445 1.7200303 1
24.258657 -2.0326278 1.7136796 18
23.982084 -2.0232675 1.3993019 18
24.485222 -1.8623809 1.632612 34
24.611923 -1.6833758 1.603404 22
23.934324 -1.8313156 1.4527889 17
23.915766 -1.6445453 1.495599 33
24.684757 -1.4995158 1.6037338 46
24.123905 -1.4738679 1.4255487 1
24.770054 -1.3136966 1.6007782 22
24.752384 -1.132311 1.1927159 1
