# .PCD v0.7 - Point Cloud Data file format
VERSION 0.7
FIELDS x y z intensity
SIZE 4 4 4 4
TYPE F F F F
COUNT 1 1 1 1
WIDTH 118
HEIGHT 1
VIEWPOINT 0 0 0 1 0 0 0
POINTS 118
DATA ascii
24.936588 -4.0282993 0.64786309 59
24.968689 -4.0421882 0.85358816 63
24.858093 -3.9193656 0.86679965 61
24.776545 -3.805521 0.681261 60
25.079874 -4.2482185 0.78215468 66
24.833838 -3.8329124 0.9425537 67
24.692007 -3.6575332 0.56231123 54
24.855942 -3.8215766 1.0441601 56
24.716724 -3.6950257 0.88805509 62
25.224525 -4.4625616 0.69377756 13
24.626728 -3.5660396 0.71180779 61
24.721085 -3.6274853 1.0195723 71
24.903658 -3.7301838 1.1961303 4
25.181786 -4.0427408 1.2226863 20
24.7045 -3.5884244 1.0710624 57
24.570515 -3.4514766 0.65091485 65
25.379406 -4.2639823 1.112245 51
25.055704 -3.8352573 1.3031727 17
24.550316 -3.4462798 0.92801964 70
25.444071 -4.4629445 1.0673875 52
24.776646 -3.4921939 1.2114203 2
24.625177 -3.4254045 1.093251 57
24.921053 -3.632586 1.359073 3
24.945444 -3.6311598 1.3764499 7
24.456562 -3.3058074 0.7516014 62
24.557039 -3.3359559 1.0977585 55
24.443716 -3.2459037 0.7471121 68
25.529732 -4.6673222 1.0170898 52
24.843843 -3.4292192 1.4485184 6
24.944145 -3.5327001 1.521533 16
24.552547 -3.2290986 1.1577934 19
24.351887 -3.1547687 0.58310485 56
24.380047 -3.1788011 0.96569866 73
24.580118 -3.2268519 1.2601306 1
24.797646 -3.2778649 1.5458875 29
25.692188 -4.8881097 0.93032289 1
24.308729 -3.0412898 0.84753335 71
24.765608 -3.2310808 1.5134767 21
24.286398 -3.0261526 0.79223126 71
24.390724 -3.0615158 1.1364001 48
24.472706 -3.0325465 1.2273235 8
24.504648 -3.1014123 1.4688016 0
24.455795 -2.9523227 1.2733077 0
24.831381 -3.1701188 1.6992818 27
24.21788 -2.8950624 1.0000585 79
25.389927 -3.1311953 1.6054143 17
24.169775 -2.8645849 0.62778723 58
24.660559 -3.0301757 1.5916276 41
24.628189 -3.0017595 1.5780973 47
24.189589 -2.8412271 0.94385135 77
24.497581 -2.8373556 1.4193515 0
24.774876 -2.9016173 1.6751299 17
24.228548 -2.7744648 1.1655606 50
24.643133 -2.8442583 1.6314902 34
25.61673 -3.0408847 1.6722748 5
24.089968 -2.7270603 0.84263611 64
24.962587 -2.8059032 1.7511334 27
24.479504 -2.7132659 1.5954403 39
24.096363 -2.6453092 1.0303308 81
24.050732 -2.6705701 0.59079182 49
24.209578 -2.6474543 1.3408194 0
24.028927 -2.5940566 1.0443504 78
24.614342 -2.6560252 1.6784412 7
24.692547 -2.6134822 1.658569 2
25.175434 -2.7084563 1.8195062 37
24.281622 -2.5283117 1.4726973 7
24.785744 -2.4895949 1.6339377 1
24.011175 -2.4791942 0.65189743 20
24.07262 -2.4684515 1.1908206 46
25.053364 -2.5254462 1.6531633 1
24.009138 -2.4520135 1.1131978 87
24.229113 -2.4497743 1.4546218 5
26.397026 -3.5264933 1.1866974 8
24.071478 -2.3381245 1.3562113 84
24.335915 -2.4072003 1.6112697 34
24.822187 -2.3075874 1.6576763 1
24.584774 -2.3027451 1.6536053 1
25.495218 -2.6181426 1.8372221 5
25.519051 -2.4451644 1.6007507 12
24.174067 -2.2610831 1.5229125 65
23.774214 -2.2713702 0.82238948 42
23.95274 -2.2627511 1.1849343 87
24.115784 -2.2121365 1.4973468 36
24.942204 -2.2049983 1.6438183 1
24.915352 -2.1304476 1.655248 1
24.209589 -2.087456 1.6121029 22
23.703609 -2.0825949 0.904055 89
23.847342 -2.0709963 1.2818782 88
25.28306 -2.0991521 1.6465548 4
24.135998 -2.0765395 1.5836985 54
24.478899 -1.975907 1.6417758 19
24.202585 -1.8987758 1.5975239 35
25.124149 -1.9616108 1.6019671 5
24.761656 -1.860145 1.6658217 10
23.573206 -1.9138378 0.56533951 38
23.832468 -1.8882918 1.3366131 1
23.644314 -1.8933634 0.98482233 78
24.313055 -1.7259494 1.5926774 53
23.620371 -1.7120112 1.0481482 37
24.902031 -1.7313428 1.755939 17
25.109243 -1.7718369 1.6587067 5
23.774715 -1.7027574 1.4159812 0
24.422668 -1.551369 1.5901066 52
23.530024 -1.7291472 0.64297032 91
23.683502 -1.5352824 1.0680566 40
23.810301 -1.5244577 1.4492865 0
23.576334 -1.5523834 0.67141753 78
24.934145 -1.5723391 1.7913847 1
24.550333 -1.3777601 1.5828207 49
23.807518 -1.3654902 1.0596966 39
23.709024 -1.3804494 0.65766275 65
24.39131 -1.2021077 1.2701319 0
23.987885 -1.1954772 1.0241809 48
23.976654 -1.2148727 0.57557756 150
24.697203 -1.2037331 1.5684336 20
24.216011 -1.025414 0.96892953 48
24.499559 -1.0231991 1.2782104 11
24.631208 -0.86255318 0.82137316 18
