# .PCD v0.7 - Point Cloud Data file format
VERSION 0.7
FIELDS x y z intensity
SIZE 4 4 4 4
TYPE F F F F
COUNT 1 1 1 1
WIDTH 103
HEIGHT 1
VIEWPOINT 0 0 0 1 0 0 0
POINTS 103
DATA ascii
24.034775 -2.6035295 0.68546468 57
24.084126 -2.6639447 0.55724972 50
23.946394 -2.4642262 0.67957753 45
23.997318 -2.5155575 0.88994187 66
23.900705 -2.4097593 0.73245198 35
23.879755 -2.3057632 0.53552657 5
23.837215 -2.2712061 0.78828043 45
23.871336 -2.3167875 0.93167162 76
23.990072 -2.4305606 1.0741298 82
23.756241 -2.1969013 0.78407609 31
23.890995 -2.2295036 1.099493 74
24.053581 -2.3535178 1.2191826 17
23.738121 -2.0791261 0.58939981 5
23.720543 -2.0800371 0.90309584 82
23.742216 -2.0982511 0.97406369 85
23.950432 -2.1423006 1.2496653 83
23.625937 -1.9665929 0.83185226 78
24.088139 -2.2689829 1.3810574 48
23.780075 -2.0058274 1.135012 89
23.63603 -1.9287928 0.54876578 5
23.656635 -1.8991818 0.99280804 90
23.634783 -1.8664997 1.0055039 85
23.54641 -1.8313507 0.66758573 76
23.969812 -2.0489407 1.4175112 40
24.142958 -2.1857729 1.5304043 58
23.791862 -1.9080558 1.3058436 46
23.530304 -1.7425565 0.66488832 86
23.546129 -1.725284 0.84771472 91
23.668409 -1.7657082 1.1654258 57
23.613747 -1.7196286 1.0728934 38
24.554577 -2.7480507 1.5935719 41
24.511917 -2.5510287 1.6290065 19
24.050688 -1.9616816 1.552767 51
24.621954 -2.9486735 1.5485944 20
23.879187 -1.8162074 1.4373072 6
24.479691 -2.3577926 1.6607069 5
24.260107 -2.105504 1.6489824 8
23.567579 -1.6181682 1.0149074 48
23.737684 -1.6678109 1.305701 5
23.486362 -1.579392 0.67508668 93
23.509239 -1.5632951 0.73926288 104
24.560688 -2.1793931 1.6401407 1
24.723812 -3.1547337 1.4894632 13
24.230051 -1.8802427 1.6395423 32
23.600737 -1.5424367 1.1400056 51
23.549217 -1.4707822 0.82005781 87
23.958916 -1.7199459 1.5717565 67
23.62742 -1.515291 1.1596798 59
24.620041 -2.046876 1.6514509 4
24.598059 -1.9928967 1.6454029 1
23.827589 -1.5671101 1.4343488 4
23.56756 -1.3942195 0.77329332 93
24.834148 -3.3610623 1.4301817 9
23.617395 -1.3628975 0.96053988 79
24.267864 -1.6431601 1.5925976 48
23.760571 -1.4136636 1.2645946 17
24.516972 -1.8066624 1.6744449 11
23.660698 -1.3729508 1.1725701 66
24.518358 -1.7966954 1.7081156 3
24.017986 -1.474761 1.5119461 35
23.701748 -1.227923 0.76784325 67
23.756742 -1.2566885 1.0606953 38
24.927757 -3.5652394 1.3814647 17
23.793657 -1.2090203 1.1684943 60
24.614086 -1.563938 1.5964236 44
23.90649 -1.1481808 1.1581081 50
23.899033 -1.0645454 0.73452622 64
24.24939 -1.3801246 1.570518 54
24.697384 -1.6227031 1.6505485 14
23.979992 -1.0451851 1.142175 48
25.020033 -2.6023102 1.8447573 20
25.1506 -2.0011754 1.5762731 4
25.258263 -2.4377999 1.7510918 22
25.006124 -1.7448266 1.6161809 7
24.118298 -1.0414596 1.2206799 44
25.153826 -3.7971547 1.2703813 17
25.39484 -3.0414808 1.6467741 6
25.455044 -2.851213 1.6294887 16
24.581919 -1.2897049 1.5799086 43
24.819391 -1.4415743 1.6233587 18
24.872858 -1.4724618 1.6478564 14
24.145353 -0.90309989 0.67701542 120
24.221701 -0.88397712 1.0910418 33
25.46331 -2.2656643 1.6743237 16
25.27161 -1.9120159 1.6968719 1
24.385359 -0.9332521 1.2574035 14
24.743776 -1.1330144 1.2902493 2
24.830206 -1.2504649 1.6520778 5
24.795067 -1.188043 1.6473385 4
25.387251 -2.0633516 1.731899 0
24.356585 -0.73775983 0.64209843 39
25.540829 -4.0584102 1.083286 20
24.541677 -0.72511572 1.0018646 35
25.526657 -4.2521424 1.0957832 39
25.614161 -4.4622416 1.0590498 40
25.760687 -4.6864858 0.99767423 19
25.937506 -4.7773733 1.0627192 1
26.475138 -3.3923957 1.1341643 14
26.477345 -3.5951784 1.1290069 16
26.499876 -3.7994647 1.1154392 19
26.189692 -4.6725016 1.1043983 0
26.533291 -4.0085077 1.0990609 13
26.541904 -4.2121634 1.097403 5
