# .PCD v0.7 - Point Cloud Data file format
VERSION 0.7
FIELDS x y z intensity
SIZE 4 4 4 4
TYPE F F F F
COUNT 1 1 1 1
WIDTH 77
HEIGHT 1
VIEWPOINT 0 0 0 1 0 0 0
POINTS 77
DATA ascii
24.731092 -1.4375113 1.829958 1
25.012859 -1.6356471 1.6771822 2
25.110142 -1.8334818 1.6128588 6
25.072392 -2.0250533 1.6156733 1
24.461689 -0.89417708 1.3039021 5
25.022499 -2.2160749 1.6257797 1
24.138042 -0.9745577 1.2805997 0
25.022636 -2.3633795 1.9371315 4
24.908909 -2.4018364 1.6678958 11
24.20697 -0.77583975 1.2374412 36
25.568605 -2.0410838 1.8504245 19
25.133247 -2.4072912 2.0240064 0
24.901314 -2.5014839 1.8478677 9
23.817179 -1.0511937 1.2595886 16
24.75012 -2.5822344 1.735123 13
23.985649 -0.86078244 1.1668667 52
24.823225 -2.6423392 1.7329127 14
24.278761 -0.64630514 1.0079968 30
23.80661 -0.94479018 1.074901 38
23.647953 -1.1260793 1.1617544 50
24.075378 -0.73945469 0.92775571 41
24.55904 -2.7637353 1.7084621 18
24.852551 -2.7802479 1.6818634 15
23.940611 -0.83007401 0.80991554 45
23.674669 -1.0243882 0.95917267 57
23.536442 -1.1977776 1.0384494 46
24.247023 -0.60841125 0.64017421 40
23.813704 -0.91542321 0.69093657 82
23.600384 -1.1025975 0.81182951 55
23.440716 -1.2678179 0.90375066 77
24.594654 -2.9087789 1.5370532 28
25.029802 -2.9856911 1.5958096 23
25.489994 -2.8822956 1.6646247 0
23.725517 -0.99970239 0.54942441 150
23.491018 -1.1786848 0.68392873 66
23.403582 -1.3362072 0.73718667 87
25.22513 -3.0004265 1.6330402 6
24.970284 -3.1186635 1.5947092 18
23.395561 -1.2506759 0.54817104 32
23.337904 -1.4026184 0.58629537 45
25.0748 -3.0891671 1.1460388 0
24.821501 -3.2414041 1.5070956 24
24.595802 -3.1858153 1.2225666 2
24.832731 -3.3787143 1.3408409 4
24.591835 -3.323385 1.0633848 57
24.842415 -3.5112236 1.1738479 6
24.626183 -3.4640474 0.87980235 60
24.820938 -3.6413541 1.0211353 52
25.313814 -3.719063 1.1826906 27
25.045052 -3.8152702 1.1474928 20
24.744627 -3.6123106 0.65377492 57
24.874126 -3.7785656 0.82739073 66
25.047504 -3.9414115 0.98017591 58
25.902252 -3.6514018 1.0679227 14
24.92696 -3.9116783 0.63261211 40
25.050127 -4.066371 0.81071997 54
25.326273 -4.1119609 1.0818564 51
25.612644 -4.0253396 1.1126767 40
26.161036 -3.4815466 1.0668432 14
26.085045 -3.672714 1.1075392 27
26.171976 -3.5437081 1.1067439 29
25.246223 -4.2215629 0.95223314 65
25.977747 -3.9458892 1.1055418 29
26.125238 -3.8780882 1.0985966 24
26.463009 -3.4351301 1.1379189 14
26.353756 -3.8593776 1.0984995 18
25.269966 -4.3403568 0.77195835 36
25.577265 -4.3853655 1.0318524 42
25.859259 -4.3094516 1.0671587 29
25.503811 -4.487833 0.89827919 19
25.546829 -4.6049299 0.70363265 33
26.219793 -4.0873938 1.0641892 23
25.922403 -4.5503516 1.1067868 1
26.176565 -4.2336655 1.0860157 16
26.230913 -4.2858977 1.0740497 7
26.450861 -4.1466684 1.1282468 1
26.62443 -3.7578871 1.1423818 2
