# .PCD v0.7 - Point Cloud Data file format
VERSION 0.7
FIELDS x y z intensity
SIZE 4 4 4 4
TYPE F F F F
COUNT 1 1 1 1
WIDTH 108
HEIGHT 1
VIEWPOINT 0 0 0 1 0 0 0
POINTS 108
DATA ascii
23.741514 -2.2448626 0.64445412 57
23.663591 -2.0705462 0.66686594 22
23.702118 -2.1637764 0.8491565 65
23.573738 -1.97753 0.90013373 72
23.688358 -2.0833549 1.0378547 81
23.453302 -1.8658022 0.76179421 17
23.508213 -1.7838326 0.63375485 5
23.456564 -1.7568858 0.55494255 6
23.588949 -1.8949257 1.0719216 83
23.746269 -2.0087535 1.1913326 46
23.457872 -1.7766284 0.93938643 85
23.653694 -1.8122979 1.2183436 86
23.345173 -1.652894 0.80094552 71
23.481159 -1.6869261 1.1079426 88
23.784765 -1.9284461 1.3487858 68
23.327345 -1.5971452 0.79563129 77
23.361774 -1.5576881 0.97325099 86
23.264771 -1.5241326 0.64468807 66
24.048271 -2.1677146 1.48018 3
23.669159 -1.7253838 1.3869133 53
24.269705 -2.5650573 1.3226464 0
23.516117 -1.5963105 1.269298 56
23.814848 -1.8481795 1.5105078 70
23.276323 -1.4229888 0.81927687 94
23.284765 -1.4230545 0.88322788 95
23.960672 -1.9721097 1.5493159 37
23.391716 -1.4601473 1.1379021 61
23.74634 -1.6396585 1.526944 50
23.588903 -1.5054207 1.4093827 1
23.920483 -1.7833898 1.5988961 37
23.275728 -1.3217938 1.0001452 57
23.198875 -1.2831631 0.66004574 117
23.926929 -1.7701095 1.6311624 16
23.456808 -1.3659515 1.2799602 11
24.45574 -2.9655154 1.1930187 1
23.249403 -1.251307 0.96793014 96
23.26181 -1.1803842 0.80566454 88
23.943232 -1.5609648 1.603691 31
23.333439 -1.2201571 1.1450759 60
23.854218 -1.5920578 1.6645713 34
23.657043 -1.4115286 1.5506468 70
24.238907 -1.7040428 1.6541764 1
23.219894 -1.1067402 0.60899425 53
23.545538 -1.2689323 1.4095963 1
23.319876 -1.0736279 0.95250869 82
24.462902 -2.3794403 1.7060852 16
24.354979 -2.5570164 1.7364744 17
23.309601 -1.0825462 1.005959 79
24.059006 -1.4207219 1.5975437 40
23.464703 -1.1217455 1.2521955 20
24.531841 -3.1635501 1.1424268 13
23.93022 -1.328319 1.5908395 52
24.642092 -2.2069011 1.6436732 5
24.181343 -1.4793308 1.6623807 19
23.815687 -1.0300951 1.2450503 0
23.701752 -1.1735442 1.5040208 35
23.313961 -0.93878949 0.62990034 58
23.444016 -0.9677642 1.0634688 39
24.62195 -2.016063 1.6786773 1
24.614227 -2.7742047 1.5947746 36
23.416538 -0.91559654 1.0224748 60
24.103704 -1.2380033 1.613613 30
24.282782 -1.246803 1.5885739 34
24.655039 -2.96854 1.5585395 24
24.690199 -1.6426463 1.6139158 1
23.591072 -0.86027479 1.1622114 56
23.501221 -0.77545875 0.60580224 45
24.778896 -1.8380442 1.6333899 1
24.618137 -3.3662038 1.086121 43
23.588396 -0.75308746 1.0075876 60
23.915258 -1.0773175 1.5710398 54
23.785334 -0.75126094 1.2361778 36
24.226673 -1.0595398 1.5927172 44
24.664316 -1.4089986 1.6054538 7
24.244877 -0.9840861 1.5808374 47
23.810825 -0.58737195 0.97012395 52
24.05604 -0.64067823 1.2715186 10
24.552635 -1.1542604 1.6326232 18
24.766386 -3.1712601 1.4925776 13
24.725969 -3.5719562 1.0242162 56
24.955093 -1.6584848 1.582013 4
24.339005 -0.87880594 1.5818121 38
24.890991 -1.4635584 1.6470777 4
24.865917 -2.2178929 1.9904666 4
24.96295 -1.5660856 1.6625707 3
24.844294 -3.7813294 0.95857859 64
24.819223 -1.3163611 1.7085233 1
24.83886 -1.2688701 1.7090142 0
24.501123 -0.82895797 1.2524468 3
24.119492 -0.42392123 0.89151824 18
25.293299 -2.062408 1.8199043 1
24.959099 -3.9937363 0.89699757 63
25.573286 -2.4774795 1.6431303 0
25.370232 -1.8744864 1.8140384 20
25.582811 -3.4764402 1.0872812 8
25.524349 -3.6619697 1.1089585 26
25.103323 -4.2102075 0.82260066 46
25.509455 -3.8572507 1.1100518 39
25.57066 -4.0646811 1.0789759 36
25.349224 -4.4457641 0.70219117 20
25.072453 -0.54591602 0.93413353 52
25.495579 -4.4008489 0.95073301 13
25.641466 -4.2718353 1.0443497 22
25.645796 -4.2768226 1.0401772 23
25.918501 -4.1697254 1.0719347 12
26.189568 -4.0609126 1.1030656 2
26.482151 -3.5784121 1.1457527 0
26.503736 -3.3786061 1.1459538 0
