# .PCD v0.7 - Point Cloud Data file format
VERSION 0.7
FIELDS x y z intensity
SIZE 4 4 4 4
TYPE F F F F
COUNT 1 1 1 1
WIDTH 122
HEIGHT 1
VIEWPOINT 0 0 0 1 0 0 0
POINTS 122
DATA ascii
24.604778 -3.5022655 0.78354377 42
24.532206 -3.3689525 0.7419489 50
24.620003 -3.4113975 0.95519769 64
24.50786 -3.3930259 0.61216527 15
24.491404 -3.2925084 0.79715753 70
24.787565 -3.5920944 0.58281237 6
24.823677 -3.5600176 1.0371119 63
24.438913 -3.1710417 0.82075071 68
24.747759 -3.3635855 1.1000143 59
24.664104 -3.3234191 1.1089962 41
24.46471 -3.1905196 0.98894435 64
24.401701 -3.1712751 0.62374252 69
24.923176 -3.7598662 0.96394742 54
24.334536 -3.0579185 0.83734673 67
24.613361 -3.1604247 1.1967398 21
25.072348 -3.2809951 1.0812565 15
24.305021 -2.9700069 0.92150426 69
24.303064 -2.9468505 1.0313036 70
24.232487 -2.9203629 0.67212659 61
25.122896 -3.9799037 0.84207201 16
24.293444 -3.0661201 1.2523898 47
24.498276 -2.9637547 1.2843592 18
24.508158 -2.98979 1.3182778 17
24.354122 -2.8447411 1.1800048 6
24.938839 -2.9347212 1.2824426 19
24.149242 -2.8006256 0.89089257 66
24.168827 -2.8054938 0.56330413 57
24.189823 -2.7737024 1.0163934 78
25.380667 -3.2216845 1.1083938 35
24.414022 -2.7718513 1.3598351 13
24.407276 -2.7410071 1.3260692 1
24.139738 -2.6859779 1.0707885 62
24.059208 -2.6548734 0.71829271 66
24.039511 -2.6068347 0.67116153 70
24.108221 -2.5834625 1.0963659 55
24.195528 -2.5774593 1.2150711 2
24.320736 -2.5782392 1.4428229 10
24.3594 -2.6233933 1.5201029 19
23.963057 -2.5251088 0.94547909 77
23.928549 -2.4948041 0.5695821 52
25.751175 -3.1644468 1.1079147 25
24.571747 -2.5322249 1.5864253 14
23.909824 -2.406404 0.78322887 68
23.979223 -2.4079547 1.1082908 58
24.032335 -2.3899 1.1768687 17
25.773829 -2.9228027 1.0545309 16
23.86112 -2.3649821 0.78098339 59
24.838596 -2.4419816 1.6291965 3
24.240574 -2.3856006 1.522388 33
24.013151 -2.290472 1.2623155 1
24.201672 -2.3435323 1.5537516 31
23.785862 -2.2358096 0.99030626 74
23.782154 -2.2137563 0.89589822 76
24.287683 -2.0509782 1.1358216 0
23.948673 -2.2024472 1.2625834 1
24.770565 -2.1557736 1.6103541 21
24.116943 -2.1946335 1.6247189 39
23.965799 -2.1653996 1.4530181 0
25.992153 -2.8325992 1.1265367 13
23.797909 -2.112499 1.1551522 40
24.127159 -2.2179027 1.754654 19
26.090326 -3.097724 1.1258599 12
23.650927 -2.0519607 0.55400729 49
23.66802 -2.0228655 1.0019479 78
24.027031 -2.0471225 1.5905851 41
24.104008 -2.0131357 1.6754633 46
24.958191 -2.0451252 1.6891044 14
24.229214 -1.9386264 1.6541835 11
23.705849 -1.9781444 1.3698404 0
23.868599 -1.8651245 1.4530023 4
23.534161 -1.8579772 0.66897506 65
23.590117 -1.8354037 1.0933921 84
24.22353 -1.8408498 1.6647904 6
24.471169 -1.8295356 1.7001317 16
24.623779 -1.8915104 2.0083094 3
24.334013 -1.6668577 1.6616298 1
24.696579 -1.7174001 1.7545054 19
23.882851 -1.737673 1.6058493 35
24.140244 -1.6246048 1.6415064 1
23.74885 -1.64342 1.5094845 17
24.49498 -1.5169083 1.6269529 1
24.446476 -1.4894565 1.6610096 1
23.529232 -1.6519479 1.1773316 56
23.389849 -1.6669495 0.80152613 66
24.966692 -1.6023695 1.7878445 4
24.845261 -1.4002964 1.6196561 5
24.721004 -1.3272578 1.585098 3
25.171442 -1.4810339 1.8526785 22
23.69029 -1.4614626 1.5928346 50
23.483356 -1.469014 1.2573512 83
23.285217 -1.4804351 0.91548097 78
24.704611 -1.1442305 1.6522344 4
23.693104 -1.2857363 1.6457326 10
23.408012 -1.2883235 1.3523449 84
23.21339 -1.3010061 1.0106031 87
23.202551 -1.3257676 0.56614017 4
23.70092 -1.1100352 1.7014573 39
23.332016 -1.1090096 1.4516615 21
23.152874 -1.1210276 1.1048279 88
23.039679 -1.1399468 0.72015083 52
23.955387 -0.94568098 1.635936 37
23.339148 -0.93567163 1.5106955 74
23.107523 -0.94451851 1.1930599 70
23.004658 -0.96194953 0.80462837 93
24.165663 -0.7741698 1.5984278 39
23.386965 -0.76249909 1.5508175 62
23.135975 -0.77112651 1.2444483 37
22.980629 -0.78538698 0.88521421 90
23.575672 -0.59320354 1.5220811 36
24.267826 -0.59897554 1.6170695 19
23.209946 -0.60070902 1.2725931 18
23.86327 -0.42607141 1.4478575 8
23.048071 -0.61457181 0.91712958 84
23.370907 -0.43025959 1.2604048 17
23.185423 -0.4438403 0.91628331 63
24.313019 -0.42270976 1.6661099 0
24.145187 -0.25339693 1.3812524 11
23.561819 -0.26067844 1.236256 45
23.386816 -0.27356851 0.88421512 48
23.800449 -0.089487106 1.1892651 60
23.664143 -0.103802 0.81367922 37
24.011698 0.070013925 0.71128124 69
