# .PCD v0.7 - Point Cloud Data file format
VERSION 0.7
FIELDS x y z intensity
SIZE 4 4 4 4
TYPE F F F F
COUNT 1 1 1 1
WIDTH 147
HEIGHT 1
VIEWPOINT 0 0 0 1 0 0 0
POINTS 147
DATA ascii
22.951231 -0.6529687 0.56231958 25
23.028976 -0.59951329 0.70868963 73
22.993486 -0.62363684 0.80514932 80
22.91835 -0.79621094 0.77867347 94
23.122114 -0.46461838 0.66379982 60
22.936377 -0.97246766 0.70307547 82
23.082916 -0.54397929 0.8674593 62
23.127756 -0.45341524 0.80378836 51
23.244144 -0.40090555 0.7901721 56
23.033306 -1.1519459 0.58517677 6
23.166533 -0.48697197 1.0112087 51
23.335146 -0.28073549 0.76362693 52
23.314302 -0.33613721 0.94249976 54
23.037512 -0.95379162 1.0939854 32
23.006119 -0.77881616 1.1741322 68
23.088957 -0.60733616 1.1965425 71
23.444807 -0.23637705 0.69296509 72
23.086412 -1.1314654 1.0051634 89
23.275396 -0.42649916 1.1410704 48
23.217581 -0.43850303 1.1966766 66
23.148651 -1.3119816 0.9118613 84
23.447088 -0.26752532 1.0618533 32
23.559919 -0.10583526 0.71888846 60
23.579504 -0.16317995 0.81175417 40
23.405424 -0.26592743 1.170933 53
23.449217 -0.36366448 1.2373689 37
23.254589 -1.4936473 0.79783976 39
23.679701 -0.050593372 0.57616365 18
23.261095 -0.94325781 1.4137069 13
23.25238 -1.1184965 1.3585261 36
23.271049 -0.76893651 1.4727113 17
23.614954 -0.19606531 1.1637235 52
23.697222 -0.086270005 0.94216537 39
23.468836 -0.59974766 1.437181 1
23.334743 -1.2990565 1.2568589 88
23.647291 -0.092943385 1.1207165 29
23.366524 -1.6829531 0.67925948 20
23.389828 -1.4796135 1.1726624 89
23.8179 0.069299892 0.65925747 35
23.80579 -0.29907843 1.242429 0
23.899727 0.03335591 0.6497398 54
23.88916 -0.0074668927 1.0293632 23
23.842377 -0.12361802 1.2344931 36
23.446545 -1.6628565 1.088079 84
23.615414 -1.1174005 1.609863 20
23.496317 -1.8709966 0.55702388 42
23.727888 -0.94328409 1.6141461 40
23.558159 -1.2908624 1.5818244 49
23.860971 -0.770172 1.6109869 23
23.529261 -1.8478788 0.99568439 77
24.060783 -0.23092003 1.3008814 4
23.597639 -1.4704072 1.5078968 69
24.126287 -0.25611234 1.2437919 1
24.267776 -0.43418387 1.098714 0
24.002308 -0.5961532 1.6077229 41
23.635769 -2.0359659 0.88987589 75
23.711708 -1.8372189 1.3489035 0
23.833008 -2.0247526 1.2392198 3
24.626051 0.090154134 0.69052404 32
23.771017 -2.2290816 0.77145493 69
23.879816 -2.2120433 1.1696887 21
24.026451 -1.6559049 1.6816335 2
24.165888 -1.48378 1.6654533 1
23.996183 -1.8352132 1.649719 18
24.302248 -0.76794839 1.8335752 4
24.318722 -1.3093874 1.6457387 1
24.003077 -2.0163047 1.5998431 54
24.031065 -2.0541735 1.6261423 54
24.010168 -2.1835704 1.4752896 6
23.906073 -2.4255254 0.65726596 65
23.945627 -2.3998017 1.0951947 72
24.009626 -2.4438281 1.1473109 21
24.085659 -2.205816 1.5147849 19
24.239267 -1.9362088 1.6826851 13
24.543344 -1.1372708 1.5938423 4
24.845472 -0.42813262 1.2617939 39
23.990088 -2.5675044 0.99085236 70
24.041777 -2.5931256 1.0056093 78
24.450525 -1.8153859 1.7373542 42
24.064266 -2.7027144 0.78006953 60
24.48505 -1.8528268 1.8529062 9
24.249525 -2.3760743 1.5777273 39
24.333048 -2.2543893 1.7009381 26
24.666555 -1.6801519 1.8153802 17
24.221193 -2.4980915 1.4297478 2
24.196121 -2.7427824 1.1079607 45
24.15522 -2.7903259 0.90948778 73
24.14427 -2.8363459 0.56463969 51
24.196545 -2.8671372 0.93388736 70
24.712965 -1.6958357 1.7672851 17
24.564783 -1.8781095 2.0660386 0
24.411114 -2.6755188 1.5562698 10
24.581255 -2.6607454 1.0804938 0
24.400909 -2.7967045 1.3932005 16
24.631327 -2.6272621 1.1640916 0
24.276169 -2.9958622 0.72158784 66
24.296719 -2.9927735 0.80197018 67
24.906097 -1.5092643 1.7544318 11
24.787426 -2.2452643 1.6222858 15
24.856424 -2.1668997 1.6103585 19
24.901064 -2.0670481 1.6107001 19
24.976625 -1.5719182 1.7978675 1
24.36418 -3.0277114 1.0722021 20
24.392603 -2.9722443 1.2149029 8
24.469629 -2.9232609 1.1899239 3
24.642115 -2.8140531 1.1236161 0
25.210186 -1.4402696 1.8424152 17
24.394768 -3.1484151 0.88295048 63
24.417452 -3.1934199 0.70605969 76
24.436085 -3.2683444 0.68674678 65
24.566633 -3.1799598 1.0968827 43
25.183445 -2.0579102 1.6173478 8
24.587381 -3.1903868 1.1815388 23
24.55522 -3.29846 1.0240252 64
24.551039 -3.4084697 0.84991807 71
24.577913 -3.400456 0.59364593 7
24.646885 -3.3759649 1.0290675 68
25.067568 -3.1346846 1.1151147 24
24.603806 -3.5232799 0.64547974 6
24.72838 -3.5500495 0.98232144 65
24.754944 -3.576246 0.94990331 67
24.702381 -3.6472986 0.82200807 47
24.855558 -3.4608738 1.0956124 50
25.163631 -3.3939695 1.1164261 41
24.881481 -3.7811418 0.86390734 54
24.898792 -3.7779646 0.9482345 52
25.025639 -3.6980343 1.0596787 47
24.887213 -3.8733351 0.77585387 48
25.520866 -3.0677602 1.0700338 22
25.54022 -3.0766406 1.1147192 38
25.485632 -3.2618749 1.1099242 40
25.652756 -2.8961539 1.0930521 18
25.467085 -3.4524515 1.0916485 37
25.33577 -3.6420333 1.0821745 37
25.562723 -3.3307786 1.1000491 33
25.089693 -4.0020967 0.73816979 34
25.787062 -2.7174122 1.0636486 22
25.808477 -2.690151 1.0493894 20
25.481791 -3.6439536 1.0615857 28
25.813051 -2.9794347 1.1029661 29
25.981417 -2.5747814 1.1389688 6
25.913733 -3.2583494 1.1074843 18
25.458229 -3.8309579 1.0518047 17
25.71911 -3.5890353 1.0731622 18
26.053715 -2.8808084 1.1637005 5
26.005146 -3.5199549 1.1131476 2
26.191277 -3.174067 1.153609 1
