# .PCD v0.7 - Point Cloud Data file format
VERSION 0.7
FIELDS x y z intensity
SIZE 4 4 4 4
TYPE F F F F
COUNT 1 1 1 1
WIDTH 156
HEIGHT 1
VIEWPOINT 0 0 0 1 0 0 0
POINTS 156
DATA ascii
23.765474 0.28409433 0.67792022 56
23.483835 0.10722947 0.74425131 47
23.561481 0.16160096 0.97763669 43
23.562243 0.11995746 1.1484591 40
23.286552 -0.027205961 0.58543116 150
24.095316 0.17917116 1.1437256 42
23.707319 0.012880161 1.25018 2
23.232777 -0.063402392 0.79940963 46
23.29953 -0.0038539437 1.0242181 39
23.986591 -0.043506294 1.2945207 2
23.325184 -0.04917784 1.1937343 65
24.276428 -0.22434318 1.0686839 0
23.113665 -0.16631725 1.0363835 47
23.379562 -0.14921872 1.3315197 5
22.998034 -0.18735686 0.65648174 59
23.02103 -0.23270762 0.83599609 50
23.342939 -0.31522155 1.2674519 0
23.143749 -0.21915241 1.2120572 64
22.963549 -0.32930699 1.0309283 57
22.863325 -0.35174534 0.64390862 63
23.341684 -0.38148963 1.4731818 6
22.882715 -0.40164077 0.83785576 77
23.952446 -0.36196092 1.5870721 41
23.942909 -0.3844862 1.6073866 37
22.989298 -0.38788199 1.2212384 65
23.622129 -0.47249049 1.5837536 50
23.058413 -0.47332063 1.3353674 1
22.868187 -0.49138275 1.0007962 80
23.808903 -0.55627769 1.6029809 22
22.794941 -0.5173192 0.59641874 72
22.811144 -0.57371086 0.80470753 97
22.916319 -0.55920601 1.1874176 73
23.179287 -0.55118704 1.4875538 27
23.031729 -0.63710809 1.2707417 12
24.848133 -0.22305958 1.2353762 60
23.315058 -0.5795176 1.571211 66
22.848728 -0.65539724 0.93118304 92
23.93474 -0.651802 1.6300133 28
24.117107 -0.54358637 1.7092915 37
23.661907 -0.72737396 1.6102353 39
22.935184 -0.73286098 1.1099457 41
22.830408 -0.74815369 0.72403854 85
23.162655 -0.72430438 1.4286702 18
23.643356 -0.75376898 1.6050416 39
23.156633 -0.68617088 1.4835844 53
23.020958 -0.80227327 1.2009325 63
22.891108 -0.82383341 0.8309595 94
23.044943 -0.79270107 1.372353 1
22.977139 -0.90910739 1.021291 89
23.054111 -0.90327007 1.1933577 56
22.925226 -0.92866784 0.60298884 9
23.159405 -0.89631194 1.3652382 33
23.356005 -0.85269815 1.5779473 42
23.047523 -0.97067195 1.113117 92
23.513115 -0.89693624 1.6200135 18
23.264454 -0.95523137 1.4541664 36
23.01133 -1.0081881 1.0434015 84
22.931381 -0.99388242 0.73337317 29
24.176094 -0.5571326 1.8604329 2
23.223303 -1.0597212 1.3027447 86
23.221512 -1.0740236 1.2713245 88
23.035738 -1.0855361 0.9272486 89
23.096754 -1.141861 1.0163019 89
23.001797 -1.1149021 0.86925727 72
23.181658 -1.1620826 1.1472955 92
23.61677 -0.90992898 1.8163141 16
23.117407 -1.1742443 0.55640727 5
23.523809 -1.0117165 1.6918607 7
23.445492 -1.0674969 1.5951191 44
24.40576 -0.83676881 1.6007661 6
23.194006 -1.232392 0.58247882 5
23.134857 -1.2684646 0.81233495 45
23.158041 -1.2620597 0.98193312 74
23.281 -1.2555182 1.1802061 89
23.439745 -1.1101674 1.5598738 47
23.377441 -1.2084913 1.4180574 87
23.168903 -1.3647655 0.7962063 47
23.242088 -1.4545361 0.69326496 32
23.360346 -1.3089051 1.2489245 14
24.465054 -0.92572618 1.5903546 5
24.210627 -1.0932808 1.6515297 4
23.948977 -1.1797565 1.6764964 1
23.477715 -1.24649 1.5193774 74
23.636143 -1.2620502 1.6558889 12
23.30044 -1.4024705 1.1043586 83
23.562286 -1.3539764 1.5201263 35
23.328634 -1.4359096 1.0973463 86
24.608347 -1.0051305 1.7056789 2
24.544254 -1.1078275 1.5612761 2
23.296232 -1.4996456 0.92665076 73
24.083824 -1.2670044 1.656631 1
24.514601 -1.3538637 1.5975635 1
24.045597 -1.4216325 1.6486795 3
24.788996 -1.2699062 1.6426839 16
23.933235 -1.4383471 1.6741323 2
24.93716 -1.1746185 1.7496605 2
24.819923 -1.297529 1.7434337 12
23.475599 -1.5399549 1.2088773 18
23.340719 -1.5990287 0.71864879 62
24.584961 -1.4667571 1.8005661 15
24.562769 -1.4898103 1.7725126 16
24.338467 -1.5686654 1.7007883 21
23.725979 -1.4932951 1.6317997 28
23.405441 -1.6195278 1.001717 77
23.417168 -1.6268312 1.0597185 81
23.670851 -1.5804784 1.4828151 12
23.627607 -1.6677784 1.3265839 0
23.388334 -1.6445765 0.55782747 47
23.87405 -1.612218 1.6501672 15
23.580469 -1.7508588 1.1713284 36
23.43404 -1.71979 0.86921108 75
23.82638 -1.7074353 1.5985575 40
24.075817 -1.6395864 1.6514176 7
23.777681 -1.7889711 1.4467933 2
23.726847 -1.8033482 1.229731 3
24.370426 -1.633141 1.8492222 12
24.888628 -1.4169868 1.7939501 2
23.887701 -1.7941583 1.5937924 49
23.775177 -1.8713914 1.2684778 4
23.537056 -1.8340474 1.0140636 77
23.496641 -1.8126667 0.65122974 72
23.509981 -1.8087616 0.89372474 75
23.956444 -1.9812586 1.5127172 20
23.681282 -1.9443897 1.1377517 46
23.754992 -1.9859209 1.1675001 31
23.559721 -1.9184321 0.82091379 70
24.762875 -1.8482646 1.6124114 18
23.642467 -2.0192347 0.97712624 74
23.642721 -2.0024271 0.77219838 71
23.614935 -2.0069706 0.6068849 60
23.679863 -2.1009281 0.77388942 64
23.813227 -2.1724875 1.091238 76
23.717951 -2.1802626 0.56734371 51
23.765913 -2.1965013 0.65834177 68
23.897116 -2.3631456 1.0041696 77
24.651865 -2.0237312 1.6195996 16
24.011097 -2.5577967 0.90306872 73
24.792353 -2.2449636 1.0497721 1
25.055168 -2.247613 1.3800443 29
24.423267 -2.393357 1.1913973 0
24.280878 -2.7433009 1.1869936 2
24.143526 -2.7563133 0.79614902 69
24.392338 -2.9430766 1.0959126 39
24.271229 -2.9580767 0.69256926 78
24.480989 -3.1392636 1.0179949 69
24.392603 -3.162529 0.59480691 7
25.508598 -2.674881 1.0789351 20
25.665255 -2.5013049 1.0422467 17
25.377247 -2.8486264 1.1069343 22
25.278297 -3.0278783 1.1203126 42
24.580875 -3.3390894 0.93924618 74
24.695656 -3.542484 0.85353738 56
25.250111 -3.2136753 1.1028384 41
25.232466 -3.4011714 1.0836565 38
24.893869 -3.7605665 0.72961468 41
25.250059 -3.5935135 1.0491055 21
