# .PCD v0.7 - Point Cloud Data file format
VERSION 0.7
FIELDS x y z intensity
SIZE 4 4 4 4
TYPE F F F F
COUNT 1 1 1 1
WIDTH 126
HEIGHT 1
VIEWPOINT 0 0 0 1 0 0 0
POINTS 126
DATA ascii
23.774773 0.2202681 1.1477609 27
23.509214 0.04745432 1.210822 55
23.965715 -0.12733111 1.3454341 4
23.302116 -0.12560827 1.2461832 34
23.501463 -0.29419747 1.5121206 13
23.138523 -0.29846871 1.2618848 16
24.05591 -0.47537494 1.6066936 40
23.3125 -0.46408793 1.5427008 45
23.878275 -0.65070122 1.631265 40
23.024376 -0.4676573 1.2553048 19
23.214691 -0.63662428 1.5308466 72
22.982622 -0.64089918 1.2143147 49
23.642353 -0.82183439 1.6875885 24
23.268354 -0.81636125 1.4401432 6
24.399649 -0.65708226 1.7336755 1
24.388926 -0.78433371 1.5776029 5
23.623875 -0.87678957 1.7901775 18
23.003618 -0.81940317 1.1414518 73
23.573757 -0.9966445 1.6639774 6
23.544399 -0.99401623 1.6674968 12
23.231083 -0.99183476 1.4021378 65
23.067572 -1.0008602 1.0480739 83
23.454636 -1.1095227 1.5474911 52
23.342493 -1.1763277 1.289137 88
23.567591 -1.1739557 1.6137161 38
24.010595 -1.1900187 1.6437021 1
23.396421 -1.2245197 1.410953 84
24.448753 -1.0949008 1.5962487 1
23.137575 -1.1839451 0.95209587 80
23.673679 -1.2863783 1.6439996 15
23.42363 -1.3432945 1.2293575 11
23.413246 -1.361531 1.1981543 40
23.624853 -1.3584691 1.532459 36
23.608477 -1.3978155 1.5082177 19
23.233063 -1.3691913 0.84637153 64
23.345314 -1.4536663 1.0969974 75
24.629717 -1.0394852 1.5875827 6
24.409739 -1.2110283 1.6397356 1
24.268036 -1.3862921 1.6559373 1
24.481791 -1.3860829 1.6227347 1
23.624342 -1.5366195 1.4827948 0
23.449778 -1.5439558 1.1285034 79
24.063398 -1.4721409 1.6566502 1
24.780361 -1.2860432 1.6489763 17
24.913616 -1.1746335 1.7535076 6
23.798691 -1.565129 1.6163037 34
24.23151 -1.5660337 1.6250197 3
23.54884 -1.619709 1.1964172 26
23.754366 -1.6713992 1.4677684 7
23.371265 -1.5703436 0.90847188 74
23.370049 -1.5597792 0.72053838 58
24.448597 -1.5431074 1.8450022 19
24.256472 -1.6399628 1.7670943 24
25.019642 -1.2354093 1.7966985 13
24.466003 -1.5700761 1.9554772 18
24.795595 -1.4551051 1.8514603 1
24.870346 -1.4134051 1.8138807 2
24.034637 -1.7354524 1.6742049 21
24.070883 -1.7351124 1.6833228 16
23.913565 -1.7419894 1.2903999 0
23.499767 -1.7259068 1.0460221 82
23.525484 -1.7323565 1.0414275 77
23.903179 -1.8271003 1.5938026 55
23.918051 -1.794597 1.2091515 0
23.962254 -1.9128412 1.6660851 36
23.778086 -1.9181176 1.4858844 0
23.742077 -1.9096351 1.3329227 0
24.018503 -1.9686221 1.7418901 21
23.682669 -1.881439 1.1527958 40
23.439156 -1.690015 0.69556195 65
23.544621 -1.8398244 0.84321558 76
23.805244 -2.0222111 1.2969089 0
24.055187 -2.0744669 1.5473381 32
23.624027 -1.9233853 0.94220072 77
24.105768 -2.1088915 1.5561752 38
23.650335 -1.9815679 0.99485403 77
23.493673 -1.7526249 0.60235947 61
23.932737 -2.1144602 1.1931933 7
23.812546 -2.1238203 1.1151729 56
23.620047 -1.9544363 0.62311292 68
23.70228 -2.0906248 0.7870391 65
24.668144 -1.9261887 1.598297 19
24.998859 -1.8473693 1.6153154 10
25.092833 -1.8072081 1.6130383 5
24.905693 -1.9815035 1.6586941 1
24.682083 -2.1609616 1.6219471 5
24.401196 -2.2288408 1.5824685 19
23.747742 -2.1197217 0.83333939 73
23.793318 -2.219552 0.94651711 73
23.990587 -2.2592349 1.2292067 2
24.190857 -2.3002253 1.5100899 18
24.182281 -2.3017375 1.4803054 20
23.983341 -2.3031933 1.1271625 38
23.76656 -2.1996131 0.56979376 57
23.941654 -2.3479712 1.0785897 59
23.863165 -2.3232965 0.73086089 64
23.884504 -2.3190947 0.71902913 68
23.942791 -2.440706 0.89733887 67
24.131809 -2.4742873 1.1862566 6
24.352531 -2.4085577 1.2528756 0
24.263287 -2.4946656 1.4053282 18
24.055904 -2.4949512 1.0533481 73
24.780718 -2.2429006 1.0088063 1
24.067356 -2.5543599 1.0406436 62
24.008274 -2.537111 0.67964327 60
24.009836 -2.5193033 0.61288732 64
24.077908 -2.6415985 0.85170144 62
24.161081 -2.6932275 0.96486616 73
24.362705 -2.6903181 1.3214262 21
24.131161 -2.7318001 0.64127707 60
25.810244 -2.2562931 1.1871146 4
24.505278 -2.8941975 1.2211497 19
24.280281 -2.8933356 0.87170017 70
24.377541 -3.0937335 0.79151458 72
24.669693 -3.1040604 1.1100506 54
24.713617 -3.301312 1.0634313 59
24.505045 -3.3022709 0.69833159 10
25.829628 -2.4537599 1.1396842 14
25.827162 -2.6473937 1.1051689 24
25.773613 -2.8370697 1.0974175 23
25.743526 -3.0263953 1.0824894 25
24.800331 -3.4995558 0.99735522 59
24.950157 -3.7102971 0.90248859 6
25.717125 -3.2189682 1.0666305 22
25.649984 -3.4061699 1.0737815 11
25.548069 -3.5835426 1.1023347 1
