# .PCD v0.7 - Point Cloud Data file format
VERSION 0.7
FIELDS x y z intensity
SIZE 4 4 4 4
TYPE F F F F
COUNT 1 1 1 1
WIDTH 138
HEIGHT 1
VIEWPOINT 0 0 0 1 0 0 0
POINTS 138
DATA ascii
23.02302 -1.1331284 0.67821401 9
22.908749 -0.98404312 0.74264109 48
22.985487 -1.0700908 0.88477796 81
22.858416 -0.89442509 0.58321691 24
22.9328 -0.91518354 0.91855234 88
22.859674 -0.81984538 0.77019858 91
23.022223 -1.0072113 1.0512344 86
23.163492 -1.21199 1.0558225 71
23.239504 -1.3979163 0.96253479 75
22.792645 -0.71609575 0.62428886 74
23.094004 -1.0286444 1.1474322 86
22.867968 -0.74352652 0.95325232 72
22.953991 -0.84582049 1.0921052 77
22.815962 -0.63607645 0.79923576 92
23.062988 -0.94129157 1.2155677 90
23.362175 -1.5878043 0.84571004 67
23.051991 -0.85090297 1.2257116 43
22.83334 -0.52362621 0.60323113 124
22.892832 -0.66719973 1.1267999 49
23.027475 -0.77578515 1.2354263 38
22.841631 -0.55443293 0.97251362 81
22.87969 -0.4369612 0.76690656 88
23.146471 -0.87610263 1.3563268 2
23.018894 -0.67313141 1.301657 9
23.481358 -1.7797244 0.73395389 66
22.920908 -0.47366959 1.1110995 52
23.365782 -1.2056071 1.3935658 88
22.983084 -0.59007621 1.2635874 17
23.546143 -1.3978099 1.2482307 0
22.924776 -0.35035041 0.92574501 82
23.076525 -0.70260942 1.3933773 3
22.891727 -0.31149405 0.5742231 43
23.31069 -1.0236903 1.4741879 18
23.515112 -1.5784743 1.2159758 15
23.231079 -0.81050497 1.4936849 33
23.022436 -0.21926416 0.68888319 65
23.038622 -0.38979578 1.2333888 37
23.013388 -0.49800533 1.3673108 0
23.111845 -0.51261371 1.3778883 0
23.042355 -0.2613799 1.0480132 45
23.274986 -0.8454051 1.5487424 52
23.56534 -1.762843 1.1428571 66
23.19803 -0.62806046 1.5137447 63
23.598476 -1.9722733 0.62584889 62
23.154783 -0.12660454 0.80207723 50
23.249811 -0.32914695 1.3076986 0
23.337538 -0.30741006 1.257623 0
23.326374 -0.67146415 1.579879 67
23.398659 -0.74406075 1.5886472 37
23.327526 -0.43538421 1.4477367 9
23.187027 -0.17077762 1.1538694 57
23.636114 -1.9515975 1.0633752 81
23.440458 -0.55763149 1.5704669 58
23.266682 -0.028750112 0.92676568 46
23.675798 -1.3908386 1.6246157 34
23.432259 -0.49872616 1.587464 64
23.694752 -1.2102547 1.6672686 3
23.715288 -1.575855 1.5584484 38
23.391262 -0.15709525 1.3008149 6
23.375441 -0.076564923 1.235835 39
23.733355 -0.67998928 1.6037197 51
23.501989 -0.35189769 1.5396733 42
23.727232 -2.1416123 0.97548431 78
23.878529 -1.0385902 1.6276046 1
23.827877 -1.7645735 1.456654 3
23.616758 -0.84877676 1.811844 12
23.46381 0.070768252 1.0022564 39
23.561354 -0.32560232 1.5869044 55
23.770863 -0.48425746 1.5855267 48
23.57515 0.017972209 1.2765913 7
24.055628 -0.22910362 1.0709007 0
23.659218 0.018409619 1.2700924 7
23.782339 -0.26817462 1.5790886 48
23.85952 -2.3410211 0.8665849 70
24.035723 -0.61061639 1.6375327 19
24.063406 -0.68810874 1.6497566 11
23.778084 -0.15366605 1.5437824 41
23.669388 0.17128134 1.0744911 18
23.98321 -0.13141939 1.2924119 3
24.074118 -0.40544507 1.6190028 17
23.862631 0.19362272 1.2035414 42
24.129963 -0.50867289 1.6789309 35
24.146818 -1.7751231 1.7433833 14
24.042444 -1.947353 1.7540045 22
24.278206 -1.600641 1.7246341 39
24.125069 -0.53272641 1.7755823 30
24.207476 -2.1640995 1.1839536 0
24.111715 -2.3415947 1.1944451 0
23.999062 -2.5418148 0.75580353 64
24.497663 -1.4314467 1.6653231 8
24.308411 -2.1544461 1.5864321 35
24.133101 -2.5305383 1.1485667 10
24.26236 -2.3362169 1.5725926 17
24.135546 -2.746592 0.65000147 66
24.197832 -2.7274375 1.0831618 48
24.703197 -1.0704825 1.6705818 2
24.508284 -1.6043276 2.0583181 0
24.755342 -1.2603165 1.591854 11
24.333916 -2.5304017 1.5033045 9
24.256001 -2.9503696 0.55665213 58
24.302052 -2.9270906 1.0002186 71
24.458864 -2.942342 1.1909082 17
24.412773 -3.0720644 1.0503846 60
24.415144 -3.1298482 0.91602153 67
24.680779 -2.8332338 1.2442991 6
24.419153 -3.2052248 0.88066316 71
24.857737 -0.19343165 1.2286077 69
24.468096 -3.3452103 0.68540692 8
24.510935 -3.3338084 0.84153348 57
25.019527 -2.7993915 1.1356347 4
24.64057 -3.3934758 0.99847978 67
24.77593 -3.2811642 1.1003287 52
25.066307 -2.9967179 1.0821687 23
24.94487 -3.1718452 1.1179608 44
24.625063 -3.5195329 0.83647412 50
24.6602 -3.543314 0.74381006 30
25.082623 -3.1915438 1.1162446 43
25.373236 -2.7734151 1.0686259 18
24.972399 -3.3680446 1.0808923 46
24.722048 -3.6609106 0.61315405 15
25.010693 -3.5647588 1.0399783 43
24.927082 -3.710711 0.9156571 13
24.86202 -3.7666402 0.62008286 26
25.03183 -3.6009018 1.0358814 40
25.439787 -3.104018 1.1086386 25
24.950048 -3.8374159 0.73015147 23
25.344015 -3.5203528 1.052529 28
25.686203 -2.6628397 1.0826665 24
25.227077 -3.7910316 0.91660678 1
25.866238 -2.5343423 1.1592064 5
25.648888 -3.4334996 1.0751547 10
26.016256 -2.6969292 1.1579355 2
25.809505 -3.0104821 1.0976799 20
25.896086 -3.3331378 1.1282278 0
25.962391 -3.0875432 1.1226194 3
25.938286 -3.2808931 1.1093682 1
26.022533 -2.8958449 1.1223232 4
26.075045 -2.9002774 1.1365426 2
